-95.71400033193264 -351.868762179975 0.7022455134143115
-95.78190377456256 -353.9718481386169 0.7083304588654755
-95.75424167246035 -354.0936733074826 0.708903220435559
-95.78106726728726 -354.18695071469034 0.7090070765490282
-95.52878689660102 -354.42667980110053 0.711513523101587
-95.61178123275904 -354.4905637768665 0.7111341165702356
-95.63922899714248 -354.5836231498293 0.7112329550741947
-95.77758159666547 -354.6185408708824 0.7103772685675835
-95.80477239073528 -354.71180827393215 0.7104785473641186
-96.11163352494822 -354.65840559358725 0.7081726198967431
-96.19482407836821 -354.7223713130855 0.7077921002786525
-96.22265786544511 -354.8154119943829 0.7078881891960123
-95.8035997368809 -355.14291039275133 0.7118310914262338
-95.83178654118109 -355.23583737757303 0.7119243645990991
-95.85929494576654 -355.3291567660363 0.7120235911719988
-96.21973702383868 -355.2478728144882 0.7092571584213374
-96.30307503898965 -355.3119813530666 0.7088760560936862
-96.2743027887477 -355.4349333841966 0.7094600715242905
-96.30132507195168 -355.5286552777652 0.7095639424596243
-96.32852558380094 -355.62232031679207 0.709666393511327
-96.35574319529896 -355.71601303887735 0.7097688116746212
-96.15948903763753 -355.9269595667598 0.7117948942442354
-96.29859585562625 -355.9620362710841 0.7109344452096025
-96.4378000406165 -355.9970993938111 0.7100732749920553
-96.40918320671783 -356.12022504184586 0.7106567482959463
-96.26863749813471 -356.3020952775205 0.7122037662971934
-96.29604585516057 -356.39590747688584 0.7123052271920187
-96.32308264371389 -356.489951350275 0.7124100010745451
-96.35030365996353 -356.58393539555664 0.7125133039760385
-96.54606317970263 -356.5895578581236 0.7111660285565904
-96.12649195867685 -356.9179570037428 0.7151153169288591
-96.15313152689158 -357.012355555744 0.7152239662236184
-96.12320714518096 -357.13645816264955 0.715819602166107
-96.0397271388236 -357.288686424901 0.7168763289684534
-96.06590225062527 -357.3834386627696 0.7169893193402572
-96.03769836563282 -357.5067484520861 0.7175704878549709
-96.0084182656334 -357.6306592511641 0.7181610338107589
-96.09174891346599 -357.695545471137 0.7177824080040409
-96.06285136654462 -357.81932919247834 0.7183698905666915
-96.14674956428166 -357.8839921410272 0.7179866116193807
-96.11800835428025 -358.00776750988405 0.7185729781755867
-96.14555942118866 -358.1020566137129 0.7186749313170822
-96.17289086212618 -358.1964979667908 0.7187788904420813
-96.20038597789073 -358.29089056330236 0.7188815564036872
-96.33974435183696 -358.3266538991105 0.7180214947780428
-96.3671364945316 -358.42117511726184 0.7181252797533944
-96.39445575812205 -358.5157716961496 0.7182298078404301
-96.30975025944416 -358.669155314587 0.7192986815239237
-96.44966291002841 -358.70477814245277 0.7184343173905177
-96.47769093784778 -358.7991145584351 0.7185330927658242
-96.50508547315412 -358.89382041455445 0.7186374368437214
-96.4200875752312 -359.0475046225578 0.7197092864672072
-96.33668169363655 -359.2003904080166 0.720767546932052
-96.30772555042448 -359.3247584021612 0.7213572600430211
-96.27772563510084 -359.4497106564755 0.7219560721748053
-96.24914915518926 -359.5739533544694 0.7225427475955257
-96.21964255542011 -359.6987207457777 0.7231375439131966
-96.24698067038481 -359.793715641515 0.7232431827003438
-96.27448037324675 -359.8886631677419 0.7233475471994097
-96.30207418011628 -359.98359873338364 0.7234512183197239
-96.32959248328713 -360.0786112992241 0.7235556559624001
-96.35696608713486 -360.17373716884026 0.7236614557609187
-96.38412526992059 -360.2690129207391 0.7237692178735529
-96.41182613593195 -360.36404208572935 0.7238724344765615
-96.43939017270792 -360.4591804847073 0.723976945674508
-96.46711880987766 -360.5542700737983 0.7240801570899862
-96.60733408281254 -360.5904126305628 0.7232153038609681
-96.6350209946837 -360.68559956172055 0.7233191097355416
-96.77555551713465 -360.7216510146833 0.7224517466399902
-96.80312552770752 -360.8169747847576 0.7225567942592761
-96.83085589376071 -360.9122520699268 0.7226605789412588
-96.85836835368713 -361.0076812332179 0.7227663564587488
-96.8858902520004 -361.10314308388524 0.7228721701068821
-96.91349826134623 -361.1985974383695 0.7229773600242311
-96.94126515634059 -361.2940061581279 0.7230812999029013
-96.96889221913328 -361.38952589310605 0.7231865608677595
-96.9405561213735 -361.5144267271052 0.723773612738114
-96.96819208619395 -361.61001704320995 0.7238790317426265
-97.05220426753604 -361.6760855491821 0.7234993412714061
-97.07994418454534 -361.77169708638445 0.7236041017121693
-97.10776939336765 -361.86730169571206 0.7237082459057547
-97.1354535599909 -361.9630180680118 0.7238137219532064
-97.05010457984837 -362.1180369726441 0.7248921814529581
-96.9656751772568 -362.2726107788049 0.7259628417676822
-96.99301467116143 -362.36862061223894 0.7260716359690491
-97.02053639592728 -362.4645727877555 0.7261789798785117
-96.93488688752022 -362.6198983580576 0.72726049094058
-96.84984483869084 -362.7749425589385 0.728336889442005
-96.82033112938345 -362.90091088261397 0.7289354803685342
-96.67943481062112 -363.08531328644864 0.7304928392047145
-96.7068155731536 -363.18152748268494 0.7306019829810566
-96.73439968433946 -363.277673069697 0.7307094950840565
-96.76197880453783 -363.37385929680113 0.7308171687175218
-96.78981482410259 -363.4699488813461 0.7309227499089275
-96.81765555125841 -363.56607406211765 0.7310284092845336
-96.84559676973257 -363.66218464253905 0.7311333225179624
-96.87345952829511 -363.75837446066845 0.7312390298616833
-96.90100759261722 -363.8547673832089 0.7313475645809149
-96.92898289241269 -363.9509744656709 0.7314525411403565
-96.95680486706006 -364.047300092215 0.7315589563351068
-96.98496768169176 -364.1434852155864 0.7316625570883275
-97.12421138756226 -364.1814749779307 0.7308102379028014
-97.26641174370248 -364.2179537629503 0.729932593453043
-97.29518076276342 -364.3139365689058 0.7300313369155447
-97.54915358768166 -364.2918981725022 0.7281919473629728
-97.6339631697797 -364.35858017950943 0.7278086106916817
-97.71865349152543 -364.4253634154294 0.7274264211641253
-97.68992312355222 -364.55164312821046 0.7280205217913363
-97.71783745680706 -364.64826651537896 0.7281272216247885
-97.68901447711009 -364.7746708659921 0.7287223566044645
-97.77391821870187 -364.84149623771555 0.728338810541004
-97.80201337857926 -364.93813997389105 0.7284443131330818
-97.77287060120334 -365.0648265514428 0.7290425578082136
-97.74410725932165 -365.1913522563983 0.7296376554381254
-97.71495345874773 -365.3181206893766 0.7302362322269573
-97.51514878426309 -365.53438141072206 0.7323036405402377
-97.42997940986487 -365.690588227071 0.733384552291227
-97.45804238317714 -365.7874778069678 0.7334910459337607
-97.48572708745137 -365.8846042077598 0.7336009153299301
-97.51357897322396 -365.9816815309953 0.7337094661136234
-97.5413671923582 -366.07883080348154 0.7338186851421824
-97.68319785336688 -366.116240738667 0.7329465218977589
-97.7112523795174 -366.2133280453262 0.7330536910329783
-97.73931660194455 -366.3104489075466 0.7331608972083359
-97.767390427559 -366.407603394161 0.7332681412874535
-97.68158866370084 -366.56448538673845 0.7343555674719369
-97.70966102064736 -366.6617176073207 0.734463064199474
-97.68151902314412 -366.7884533557877 0.7350544849101084
-97.65236886727692 -366.9157558587026 0.7356547017567436
-97.68036845670262 -367.0131420226089 0.7357631858733953
-97.7081463926391 -367.11068314114374 0.7358736985456744
-97.68095408824615 -367.2370749654266 0.7364574256161518
-97.70880686135882 -367.33465427124713 0.7365675356188035
-97.73676077051834 -367.4322194048224 0.7366768963192953
-97.70768992680317 -367.5597115303295 0.7372771515400132
-97.73506982767711 -367.6576550413074 0.7373916940975391
-97.70691318598257 -367.78474516793597 0.7379843220145972
-97.79049061006842 -367.8533123322238 0.7376154545417535
-97.70529356029124 -368.0103754160886 0.7386992294652828
-97.79006805756387 -368.0783932749405 0.7383203031817516
-97.6476617754302 -368.26551684574395 0.739896675088346
-97.67555312548023 -368.3634251496065 0.7400075421003294
-97.70275027155797 -368.46173630054 0.7401245052646459
-97.6741422321606 -368.5893335875497 0.7407218618170077
-97.64475271137266 -368.7173790869002 0.7413260644772208
-97.67244858062732 -368.8155456124405 0.7414390996049747
-97.58751542827571 -368.97277807955146 0.7425215628838941
-97.6157604274262 -369.0707346207543 0.7426301147278878
-97.64384795247746 -369.16881283094335 0.7427401438779953
-97.67194073350936 -369.26692744653224 0.7428502499122942
-97.70020970511337 -369.3649889066163 0.7429589618074601
-97.7285780397554 -369.4630374959588 0.743066940820313
-97.75663048693603 -369.5612908521989 0.7431777607120011
-97.78468538803753 -369.6595821633436 0.7432886818555176
-97.8129869067448 -369.7577834950952 0.7433976030188205
-97.84145477039726 -369.8559369373369 0.7435052151070067
-97.8138715922574 -369.98350298264006 0.7440953290404195
-98.01081693867262 -369.99344559407325 0.7427532583476477
-98.03910339138044 -370.091812489931 0.7428628008517535
-98.06739968150882 -370.19021359568274 0.7429723814522617
-97.98090052200764 -370.3488104500517 0.7440700174876156
-97.89521281602391 -370.5070206461891 0.7451607904066009
-97.86930251545766 -370.63394466382766 0.7457372391368153
-97.89759456328538 -370.73250462086685 0.7458473446832272
-97.92571099540116 -370.83119607040743 0.7459590846506785
-97.95411509045259 -370.92977626718704 0.7460684721356188
-97.98198789629276 -371.02867437310124 0.7461825550790309
-98.00978628228586 -371.1276510008943 0.7462974017336705
-98.03769811289605 -371.226607729015 0.7464113954119398
-98.12139016696851 -371.29637530347225 0.7460454721681913
-98.14998908090719 -371.3950513630362 0.7461538003451551
-98.17860039240286 -371.4937605395549 0.7462621453614702
-98.20682819745062 -371.59271030226273 0.7463739143875614
-98.23475537019374 -371.69185724289616 0.7464883942698748
-98.26308354510928 -371.7908337366522 0.7465995468901951
-98.29149802915374 -371.88980470017026 0.7467100805293398
-98.32007551698445 -371.98872996917385 0.7468193352322601
-98.34843108137815 -372.0878112559002 0.7469306236881152
-98.37695089237434 -372.1868462390475 0.7470406226437944
-98.4053286953582 -372.2859954066737 0.7471519677380343
-98.37736385242962 -372.4147055206371 0.7477483103023701
-98.4056664449542 -372.5139735030173 0.747860550270957
-98.43374345355873 -372.6133995184092 0.7479748557974517
-98.40444343558347 -372.7429278768212 0.7485830586714428
-98.31732988073173 -372.90278667023654 0.7496889134758931
-98.23211561445034 -373.06168940077146 0.7507785452684175
-98.2591879834449 -373.16180028106965 0.7509019907195693
-98.23126757041005 -373.2907635513411 0.7514988129788662
-98.20216557682689 -373.42038543185384 0.7521059268972294
-98.23030633127526 -373.5200560090743 0.7522205506490423
-98.2584553553174 -373.61976225675255 0.7523352279828259
-98.28711806371835 -373.71923940055905 0.7524456095310939
-98.315868079162 -373.8187108517526 0.7525553646344747
-98.34438306714287 -373.91834550630597 0.7526672672580048
-98.43005694778871 -373.98807437927087 0.7522874063003542
-98.51541414876087 -374.05800969517804 0.7519103969713115
-98.54420804527216 -374.15761898354276 0.7520202759795325
-98.5727025011024 -374.25742530175506 0.7521328570742867
-98.60136202688481 -374.3571853145722 0.7522441429230753
-98.6299552445901 -374.45702026079596 0.7523561247382986
-98.65848252804122 -374.55692996487136 0.752468799366568
-98.68701817821147 -374.6568755222928 0.7525815274698289
-98.71564184722546 -374.75681522636717 0.7526936236644701
-98.7444299880084 -374.85670904753954 0.7528044301008663
-98.7733087775574 -374.9565956822698 0.7529145821359293
-98.80204030860403 -375.0565997839191 0.7530261271514291
-98.83086147776287 -375.15659727100024 0.7531370265949704
-98.85937446788422 -375.25679656510385 0.7532507039451275
-98.88782228477062 -375.35707038441825 0.7533650680769597
-99.14748197844344 -375.3362642609082 0.7514898732243296
-99.17622559236386 -375.43646481937617 0.7516019466395392
-98.62658141622813 -375.839689977479 0.7566914268193159
-98.65524429148226 -375.94001159489596 0.7568044406492618
-98.68383998390212 -376.04040889550856 0.7569181588827405
-98.77023166583356 -376.11057135356003 0.7565346456233897
-98.74113650760391 -376.24126997689274 0.7571450696505053
-98.76999650096447 -376.34165042801095 0.7572568926696022
-98.79894877477582 -376.44202311764707 0.7573680481179963
-98.8857319922274 -376.5121436056254 0.7569816742450257
-98.97192102539945 -376.5826163870663 0.7566005415520181
-99.00077023861019 -376.6831653511792 0.7567129652272229
-99.0295422665482 -376.7837954074828 0.7568261799094103
-99.11650459416454 -376.85398597946005 0.7564387758577595
-99.1451596917881 -376.95475888841145 0.756553251240291
-99.23162808254122 -377.0252902641279 0.756170353627283
-99.20311277276011 -377.1560901648255 0.7567770508577496
-99.28930283649898 -377.2268492735474 0.7563968038757594
-99.4340890819408 -377.26695793009293 0.7555124505138338
-99.23138707743635 -377.4891153342511 0.7576184471023453
-99.20229836778975 -377.6203774794764 0.7582305834831118
-99.17233741746189 -377.75213689974487 0.7588503517325194
-99.20119034929795 -377.8531319369313 0.7589641405366478
-99.17327097165246 -377.98390316650443 0.7595665935999705
-99.25900492954658 -378.0551877838903 0.7591911652960448
-99.28781297846707 -378.1563290862318 0.7593057231377429
-99.31670821738159 -378.2574656842669 0.7594196584325914
-99.34553527274453 -378.3586789772869 0.7595343082629711
-99.37476066170026 -378.45972464991127 0.7596456582505766
-99.34596187457666 -378.591201021702 0.7602564413847972
-99.31669757397606 -378.7229618150544 0.7608713569688916
-99.34498241146133 -378.8246228013742 0.7609911831757472
-99.2575519234701 -378.98692848790245 0.7621068780978248
-99.16977626747689 -379.1494551853144 0.7632256686946448
-99.1986900228908 -379.2509092461911 0.7633404648854594
-99.11213755295407 -379.41287631054854 0.7644489824102152
-99.1988264424794 -379.48415455765456 0.7640668765873215
-99.227840441165 -379.58567943691264 0.7641811947390238
-99.25686263094805 -379.6872412486722 0.7642955709554258
-99.22745569436489 -379.81944386205026 0.7649128587699465
-99.25632468533439 -379.92116819327214 0.7650288098757301
-99.28528968872875 -380.022883529429 0.7651440635453355
-99.31458625619565 -380.1244665367536 0.7652565929350317
-99.34390318073994 -380.226080216378 0.7653690760478753
-99.37290293595986 -380.3279013478477 0.7654844173493984
-99.4607363991217 -380.3989537489274 0.7650936274262676
-99.49027587872371 -380.5005752322379 0.7652045832508065
-99.57669189568679 -380.57245339675364 0.7648262506681931
-99.60600436571877 -380.6742768398884 0.7649394189734267
-99.69304493897324 -380.7459115008987 0.7645559727168347
-99.66382040837054 -380.87847173027546 0.7651731040275536
-99.69250292723446 -380.98074950849565 0.7652920810858745
-99.72144291234525 -381.0829339886796 0.7654089721796709
-99.75063004459261 -381.1850305992945 0.7655238661807289
-99.7798287694681 -381.2871627125456 0.7656387900726145
-99.80895717003887 -381.38937324578944 0.7657544488044437
-99.83801668295362 -381.49166146792373 0.7658708300803028
-99.86700822325174 -381.59402692102026 0.765987926092464
-99.89609113535492 -381.6963861885025 0.766104365783292
-99.92510481399266 -381.7988233908743 0.7662215311962655
-99.95397523028691 -381.90137731272625 0.7663400593982033
-99.86675939651158 -382.064758097662 0.7674576104159883
-99.89562585626639 -382.16739712130095 0.7675764315875995
-99.92466486231791 -382.26998756625903 0.7676938982998536
-99.83728052608677 -382.433580120981 0.768813284486555
-99.86651176614835 -382.5361530744012 0.7689293564229729
-100.01232933578049 -382.57772309458227 0.7680423699919174
-100.21751619316872 -382.5882502444795 0.7666446634562476
-100.48118819125665 -382.56819815967435 0.7647438467913048
-100.45198281576431 -382.70153743520393 0.7653632739681484
-100.48171755957289 -382.8040579592001 0.7654756720467049
-100.51034290177748 -382.9072012995443 0.7655977469412392
-100.36394184837125 -383.10202667562 0.7672259875104714
-100.10007102211031 -383.3583969103764 0.7698651356586197
-100.01275847328537 -383.5223661411135 0.7709851959968432
-99.92897695106808 -383.6845277895003 0.772075001650478
-99.95592200041841 -383.7887582668079 0.7722121814957745
-99.92593941963929 -383.92283580773227 0.7728393294826787
-99.89664872949854 -384.0565927567723 0.7734606539538618
-99.86742212904434 -384.1903578303019 0.7740815569363235
-99.8399299337941 -384.32325656087795 0.7746876662379236
-99.86896740230063 -384.4266012538368 0.7748074957510767
-99.89815958155205 -384.52990714159284 0.7749261256300883
-99.9265374904439 -384.63368154529905 0.7750518935327477
-99.95512876859206 -384.7373864751183 0.7751759572034302
-99.98383389832553 -384.84107405632403 0.7752991730157532
-100.01305515393192 -384.94453371203485 0.775418079695271
-100.04221960107863 -385.0480654139127 0.7755376071077649
-100.07166939725042 -385.1514900584204 0.7756548112530481
-100.21674833989417 -385.1944236412139 0.7747772266246784
-100.24637602970361 -385.2978403284221 0.7748931657052935
-100.39352442982965 -385.33977664457274 0.773998043178949
-100.65802903036942 -385.32032008896135 0.7720932788481605
-100.8641673088652 -385.33146244199986 0.7706908576113847
-101.01112129009303 -385.3736312588533 0.7697978155879923
-101.04107971455369 -385.4770895179598 0.7699115784711807
-101.07065343868233 -385.5807916779472 0.7700287840245323
-101.276700868632 -385.59215544407976 0.7686276866360799
-101.30640213006832 -385.69587661380166 0.7687440622974577
-101.27728090710916 -385.830432463773 0.7693666965954549
-101.30683065133337 -385.93431790758615 0.7694846408940066
-101.27813064746066 -386.06873781339664 0.7701039145754294
-101.30767811104732 -386.17270950060004 0.7702221437195931
-101.33716865937652 -386.2767536517876 0.770340995644176
-100.3074956690525 -386.9352656706445 0.7795732696394566
-100.3353645139181 -387.0402400241113 0.7797063286453749
-100.30738473232844 -387.1744909520323 0.7803200540865305
-100.27686836793956 -387.31011195530306 0.7809557367435218
-100.30520818858588 -387.414967582841 0.781085141929907
-100.22032404966075 -387.5791315442684 0.7821888789815148
-100.36390905878457 -387.6237492746513 0.781326961777097
-100.3936736343802 -387.7279876118075 0.7814445087792024
-100.42312813813253 -387.832431124767 0.7815648573896965
-100.45299538252 -387.93670149769144 0.7816817885007481
-100.48279718428604 -388.04104904751983 0.7817994165408777
-100.57184965592344 -388.1144269648997 0.7814073798521122
-100.65965134169625 -388.18850298316994 0.7810262404622108
-100.68999738208143 -388.2926950359104 0.7811395892354653
-100.71978452854539 -388.3972226333872 0.7812578809191564
-100.74924710823063 -388.5019631458047 0.7813790994018746
-100.77847909277081 -388.6068674082474 0.7815024362080862
-100.7499522946618 -388.7420451095297 0.7821228654663628
-100.78003162701337 -388.8465918390215 0.782239179731846
-100.7494570394083 -388.98292687391535 0.7828774949819604
-100.77830015349487 -389.0882066638848 0.7830047140024021
-100.69039721533966 -389.25463150333826 0.7841365481367575
-100.71980957404247 -389.35969927286163 0.7842591372869379
-100.74931589343721 -389.4647610852671 0.7843810527787696
-100.77916293069045 -389.56968782133134 0.7845001716040656
-100.75046006101424 -389.7053004294419 0.7851231846425435
-100.8384787837942 -389.77986906597283 0.7847420683033306
-100.80943614531537 -389.9157456409323 0.7853682733299365
-100.83865623393325 -390.02117347047147 0.7854933257884795
-100.8681407626843 -390.1265062633569 0.7856162382396974
-100.89828455716979 -390.2315374182136 0.7857336137381026
-100.92803114460315 -390.33681985552334 0.7858545421207168
-100.95754326678909 -390.44226842600983 0.7859776232403988
-100.92848834566284 -390.5784101919811 0.7866047408837744
-101.0169342838304 -390.65310400433395 0.7862210364108932
-100.9873042099813 -390.7896332757617 0.7868533723554947
-100.89888257648911 -390.9569721560469 0.7879916731498611
-100.92824643468995 -391.0627151147564 0.788116705979462
-100.95787613551744 -391.16836252280655 0.7882395874210602
-100.92861071901318 -391.30487357496804 0.7888693242085196
-100.89822385686514 -391.44201463419876 0.7895088442051588
-100.81221569465148 -391.6083052764798 0.790627049732791
-100.84201111931804 -391.71403955321387 0.7907490466653826
-100.871830389206 -391.81980503908966 0.7908709746764657
-100.95982327452184 -391.8951728888359 0.7904925307753956
-101.04773069799262 -391.9706296498176 0.7901149599674682
-101.07758641864542 -392.07650772087374 0.7902369849395541
-101.10745352601043 -392.1824236152701 0.7903590484750112
-101.19689027537831 -392.25721238460346 0.7899687323192666
-101.28596583206345 -392.33223445036685 0.7895816618719778
-101.31580732528315 -392.43829570122114 0.789704357271944
-101.94114243836216 -392.23280466510846 0.7847037932586431
-101.79236894683933 -392.43241685987437 0.786363501577398
-101.76286128986304 -392.56966583713887 0.7869972284116216
-101.73342257313953 -392.70692222202103 0.7876304977041855
-101.58597514938992 -392.90596912705354 0.7892791980332277
-101.85307128285643 -392.8881540000419 0.7873614845929069
-101.28883987356905 -393.3053630205754 0.7925962728927516
-101.31922240317608 -393.411491925794 0.7927154072370399
-101.3491341777912 -393.5179112113101 0.7928387291562444
-101.37802765514606 -393.6249073811655 0.7929709494879944
-101.28861700363319 -393.7938464502956 0.7941211356832696
-101.20106652740101 -393.9618554452456 0.7952554526037829
-101.22931365745968 -394.0693212497655 0.7953936437111793
-101.20096741314408 -394.20644120042124 0.7960188709718068
-101.23085931290449 -394.3131346007805 0.7961431862680115
-101.26112088535012 -394.4196788208034 0.7962644590458012
-101.29112753275632 -394.5264006744253 0.7963880630670133
-101.32088486228085 -394.6332972488854 0.7965139501559975
-101.35057088438056 -394.74027543257324 0.7966405888845429
-101.38036000163335 -394.8472440042657 0.7967664788733373
-101.46958390046802 -394.9231619566515 0.7963811679784385
-101.61904895988907 -394.967608143535 0.7954777209135386
-101.71033136840705 -395.0425390986108 0.7950749804716679
-101.7995314340945 -395.11860437490805 0.7946902951597394
-101.83009580472084 -395.22539054439335 0.7948102113759319
-102.2772192220019 -395.114294923393 0.7913464820431386
-102.3670172732525 -395.1901833751478 0.7909570762395219
-102.4572638272445 -395.26588218843796 0.7905639521586068
-102.48738412133319 -395.37308085320615 0.790688250760013
-102.39826604195882 -395.54270272310896 0.7918385264593439
-102.00997793166454 -395.8688755431973 0.7955627705609345
-102.03979797237415 -395.97636292627305 0.7956900628404924
-101.95015136150452 -396.1463915805793 0.7968452919244555
-101.86177683677627 -396.31579848602127 0.7979897133068334
-101.89190396758997 -396.42325826842136 0.7981147785247344
-101.9218745040464 -396.5308446823507 0.7982413303907947
-101.95211422162393 -396.63833502087334 0.798365705956769
-102.04227343854029 -396.71452560695354 0.7979747243446695
-102.25191383982747 -396.7282600793122 0.7965559701665939
-102.40170612759651 -396.7733474905657 0.7956522413335279
-102.55227051106371 -396.81807681017847 0.7947420128648446
-102.58297284547476 -396.92555112872583 0.7948631131717434
-102.73250307523254 -396.9709125935125 0.7939620659924458
-102.76316276059708 -397.0784994986432 0.7940838147378599
-102.19473103399669 -397.4995055813911 0.7993597280106997
-102.22423936005025 -397.60778224367857 0.7994916548468609
-102.01493830744201 -397.84101898273855 0.8016782094042014
-101.98665592634056 -397.97961328247493 0.8023075890964151
-101.955181599056 -398.11992174496504 0.8029645681268107
-101.86572233955638 -398.2906045131217 0.8041205308408621
-101.83748223193203 -398.4293102039754 0.8047499631753681
-101.86769861083691 -398.53748460159375 0.8048766346564094
-101.89774996611924 -398.6457904429817 0.8050048665600116
-101.9279024119351 -398.7540885606095 0.8051323695880228
-101.95815350775206 -398.8623802567025 0.8052591648163911
-101.9885048148869 -398.9706647403783 0.8053852388935638
-102.07774475013973 -399.0481936696163 0.8050048399384764
-102.10796457685107 -399.15663763715463 0.8051323280209317
-102.13860177107016 -399.2649085859904 0.8052563667245067
-102.16941190018008 -399.37313438951935 0.80537905896648
-102.2002492827027 -399.4813912685396 0.8055016581083692
-102.23075959856624 -399.5898645625533 0.8056272123930626
-102.26128870151578 -399.6983734071784 0.8057527465593353
-102.53086832265856 -399.6819027182795 0.8038219111374474
-102.56136911342222 -399.790518159477 0.8039479751080307
-102.41258959842962 -399.9929423436873 0.8056164944574675
-102.38313628419841 -400.13300364198847 0.806258612491547
-102.41371207507541 -400.24171532199705 0.8063844536869738
-102.44412560392811 -400.35055738820733 0.8065118327535856
-102.47455072006156 -400.45943894337904 0.8066392541793448
-102.50464919276494 -400.5685368997242 0.8067696277539653
-102.53493290113424 -400.67758357862806 0.8068985499849077
-102.56522939354744 -400.7866691942078 0.8070275045089375
-102.5960331631607 -400.8955351683816 0.8071522374256688
-102.62618731822931 -401.00478654257813 0.8072827012156836
-102.6562842924197 -401.1141135159492 0.80741379941486
-102.5665079225765 -401.28617444343433 0.8085762706939477
-102.59700732637663 -401.3953819474705 0.808704190650019
-102.62759962660654 -401.50458664511393 0.8088314541931254
-102.65844431710418 -401.61370515649924 0.8089566893385722
-102.80942728587237 -401.6600446559107 0.8080485638080859
-102.96079175711736 -401.70623147888 0.8071373023810224
-102.87121198466616 -401.8784620382414 0.8082989319975695
-102.8423743678405 -402.01897389667187 0.808938162520235
-102.93289105637663 -402.09711826272274 0.8085507814210473
-103.32535407497753 -402.01741605383927 0.8055660356038743
-103.47703486441353 -402.06367101227045 0.8046527813261264
-103.14593265107692 -402.3624247019011 0.807892828062279
-103.47817369129687 -402.31435578121307 0.8054265883790208
-103.44882023606665 -402.4554135686037 0.8060711177066082
-102.63298029317207 -403.0077685052585 0.813481531681532
-102.66316440722723 -403.11778251478125 0.8136141648383273
-102.57329627528964 -403.2906166500769 0.8147796870766228
-102.60364080084742 -403.4006385632703 0.8149112265133454
-102.63440424813362 -403.5104876036101 0.8150393061901013
-102.66517888451612 -403.6203769954238 0.8151674336918973
-102.75709690595326 -403.6983424036246 0.8147697246199073
-102.7880785829397 -403.8082162694703 0.8148963602458821
-102.81959252066305 -403.917858114813 0.8150185614790644
-102.85041845242517 -404.02790600080664 0.8151468256118051
-102.94119556313372 -404.1066543543001 0.8147595123866154
-103.03292315736502 -404.1849525888607 0.8143641688479875
-103.24428310444662 -404.20074812690257 0.8129398535515406
-103.27590746069295 -404.3105652607283 0.813061831589323
-103.60896047193803 -404.2628298303322 0.810590970925773
-103.3377902748653 -404.53105300834295 0.8133179720531416
-103.36832025863333 -404.6415816995241 0.813449798860006
-103.39940489648893 -404.75186690743664 0.8135769994045177
-103.4904366538071 -404.83085686999414 0.8131886642624409
-103.4609002098914 -404.97292931582183 0.8138376335193698
-103.37004012584826 -405.1471088089038 0.8150142669379647
-103.28026214001886 -405.32076818229797 0.8161817341500637
-103.31048234063502 -405.43173725999765 0.816317094044166
-103.2811475278101 -405.57388855302304 0.816964903437281
-103.25113626006413 -405.71643968952174 0.817618675872211
-103.2813942714121 -405.82752855328187 0.8177541457014854
-103.19353556112384 -406.00041451301297 0.8189058201369335
-103.22345418694411 -406.111773809992 0.8190444994471022
-103.25292600002223 -406.223413474311 0.819187168185465
-103.22512238910879 -406.3650423149762 0.8198226730077067
-103.25526020772729 -406.4764272057249 0.8199599039483587
-103.22428015957567 -406.61980957491835 0.8206230227424385
-103.1965032771045 -406.7615638203552 0.821258732285628
-103.16813473434085 -406.903673798956 0.8218996761383437
-103.19839238292525 -407.01518291305763 0.8220364590245595
-103.2289856520521 -407.12656354431 0.8221705013431801
-103.25977317409212 -407.23788962264945 0.8223030192365286
-103.29101752203971 -407.34902391738626 0.8224317541352093
-103.32202298797662 -407.4603301356285 0.8225626906207708
-103.35258521106837 -407.57191512740445 0.8226975866752468
-103.3835260285901 -407.6833493113219 0.8228293729347342
-103.41464254730758 -407.79473877626486 0.822959794775727
-103.445876721089 -407.90611389254684 0.8230893515960815
-103.53692684039913 -407.98626913225155 0.8227045222899392
-103.56827569199118 -408.0976789365594 0.8228333877649447
-103.5993634091192 -408.20927247185466 0.8229646467888756
-103.63019444545766 -408.3210474329519 0.8230982611229933
-103.66122905767709 -408.4327632644828 0.8232302717613607
-103.63148440678003 -408.57629575137537 0.8238852456676113
-103.66215079723473 -408.6882984422724 0.8240207180534185
-103.6928388408093 -408.80033717257294 0.8241561518635194
-103.7237314238226 -408.912316376206 0.8242899740217808
-103.75497922256275 -409.0241573257972 0.8244208885265039
-103.78666856611578 -409.1358149294755 0.8245481528867344
-103.81758287257836 -409.24792509659954 0.8246822319944727
-103.8480935826596 -409.3602937023034 0.8248199308480935
-103.81833717619807 -409.5042094725243 0.8254761819607666
-103.84946049173126 -409.6163526945203 0.8256089069656127
-103.8802627106004 -409.72871131125964 0.8257445423095078
-103.72878090128756 -409.93638915489305 0.8274482849383844
-103.75981129756909 -410.04872297254997 0.8275822521256941
-103.7905277690753 -410.1612685104858 0.8277190681922093
-103.82142875442675 -410.2737652859773 0.8278544457900807
-103.8524252103737 -410.38625986511414 0.8279891509308754
-103.88375941750874 -410.4986256513736 0.8281210996826189
-103.91494274342398 -410.6111180493096 0.8282544951893556
-103.88596917025316 -410.7550977739704 0.8289054879331275
-103.97783405258807 -410.83597201979364 0.8285172203913476
-104.00954747758531 -410.94833080568344 0.8286465034575485
-104.04077728760738 -411.06099020081933 0.82878009565502
-104.07209811733722 -411.1736499163417 0.8289130542746079
-104.1031855210393 -411.2864795368716 0.8290481701483259
-104.1346142527945 -411.3991787191031 0.8291804995644725
-104.47191620253531 -411.35207757241017 0.8266819938584717
-104.50342370728315 -411.4648328306325 0.8268139489499617
-104.16814101084381 -411.76931635569736 0.8301010096257642
-104.19901205457805 -411.8824987603384 0.8302387340697805
-104.23023741169949 -411.99554407908363 0.8303735607941007
-104.20027440032959 -412.14061305291926 0.8310348485307486
-104.47648807586454 -412.1257304272279 0.8290627136720445
-104.38515236638281 -412.3029673068669 0.8302521973799912
-104.29435621284881 -412.4799693898554 0.8314371871767321
-104.32587810767635 -412.59310026667293 0.8315702132886145
-104.35733298677965 -412.7063143996676 0.8317039662549064
-104.633918426516 -412.6914836781466 0.8297294013671035
-104.41993998607737 -412.9330456871288 0.8319745279374615
-104.45126278778744 -413.0464737043964 0.8321098687158042
-104.36124151929788 -413.22335695255293 0.8332890855394339
-104.51427194900788 -413.27328482174266 0.8323778755252533
-104.91489195061423 -413.1938892252926 0.8293372164855555
-105.31559301121557 -413.11450279770054 0.8262960209061134
-105.34736406611977 -413.2279416782004 0.8264282704005268
-104.51753752027103 -413.79162844474985 0.8339715347644869
-104.54908140293071 -413.90527939465824 0.8341060293998339
-104.58071645197855 -414.01893124189814 0.8342398912338354
-104.61220066412722 -414.13271046240305 0.8343752018887471
-104.64345198345738 -414.2466599555309 0.8345126672266474
-104.55276534268533 -414.4243701537334 0.835699101733951
-104.52299474186702 -414.5702998337165 0.836361732075602
-104.55432234546257 -414.68435461319984 0.8364989938997951
-104.52379384671696 -414.8307768684955 0.8371684442720948
-104.4946645223267 -414.9765162827365 0.8378260103883122
-104.5262572531047 -415.0905781838027 0.837961445990004
-104.55786179100646 -415.2046826922535 0.8380969321428893
-104.52834886082324 -415.35076783195007 0.8387582508325409
-104.62060856069729 -415.4332796845059 0.8383723374639658
-104.59072785193584 -415.5796541436687 0.8390371224828641
-104.62161874192653 -415.69432661596124 0.8391793552563058
-104.53216161734275 -415.8719237630836 0.840356865200306
-104.56308722922029 -415.98667542623093 0.8404991028497761
-104.5943102924139 -416.10132064965507 0.8406389347825893
-104.62554794321255 -416.216007242876 0.8407787940221851
-104.65705528721031 -416.3306019579579 0.8409164864804666
-104.68874513919657 -416.44515037371184 0.8410527621358597
-104.72053067243719 -416.5596978802406 0.8411883678792265
-104.7522429484865 -416.6743327629793 0.8413247568396969
-104.78379898772047 -416.78909839829475 0.8414626428068459
-104.75552786029549 -416.93516758903 0.842115254080511
-104.78708552705547 -417.0500304640266 0.8422534319373085
-104.81865338965744 -417.1649372256858 0.8423916755683081
-104.91040566010672 -417.24845297009404 0.8420124305109198
-104.94227331362615 -417.363301887029 0.8421484036547895
-104.97415335322562 -417.4781936319505 0.8422844240012068
-105.3769187606038 -417.39938938761105 0.8392306515834775
-105.03795862045345 -417.70810152206315 0.8425565375850397
-105.0696301155329 -417.8232502670214 0.8426948133161432
-105.10163985310184 -417.93827173026585 0.8428303339456988
-105.13348430763526 -418.053428969879 0.8429674303171737
-105.10381945632403 -418.2007659635334 0.8436337120187432
-105.13577288645114 -418.31596497209716 0.8437701788814138
-105.16791097176748 -418.4311170450447 0.8439052119870212
-105.19980378638311 -418.54644678509516 0.8440425091319526
-105.2315360842724 -418.6619099458259 0.8441813414426065
-105.26328013708522 -418.77741656801874 0.8443202273318775
-105.29504058441665 -418.89296425617096 0.844459126982656
-105.32681386136029 -419.00855490040885 0.8445980711434231
-105.42031556609298 -419.09195258483606 0.8442062611042616
-105.45237373054935 -419.20749408722116 0.8443430658218176
-105.48436314751076 -419.32312124159944 0.8444806169385402
-105.57877796585423 -419.4061922716698 0.8440814221415849
-105.54879982756307 -419.55428575205855 0.8447522471000184
-105.58098727875807 -419.6699588700736 0.844888560884101
-105.5517692437471 -419.81775423181284 0.8455531568391166
-105.58353330928907 -419.9337479625235 0.8456934222235759
-105.55337383732872 -420.0821340394993 0.846366423862321
-105.5850826991536 -420.19825618294857 0.8465074745677725
-105.61654973322248 -420.3145545944057 0.8466507609456926
-105.64820328792175 -420.43080557954573 0.8467925990307776
-105.5571029956345 -420.61121836511495 0.8479903453318229
-105.58908587107067 -420.7273968955925 0.8481296614914982
-105.62125238084005 -420.84352959815453 0.8482675544657923
-105.65283708321921 -420.9600162677664 0.8484106075491127
-105.62296681862793 -421.1086486642121 0.8490823610071061
-105.65507602644193 -421.22496143449393 0.849221215014154
-105.6869478860706 -421.3414483533323 0.8493622668533476
-105.53262282895719 -421.5552266663434 0.8511048562009478
-105.50253731834931 -421.70417016514887 0.8517790804807532
-105.47219456472719 -421.85329774833997 0.8524556722809962
-105.50422029829231 -421.9699040171162 0.8525960235182879
-105.53600511614304 -422.08668643264275 0.8527386036912503
-105.56789171475648 -422.2034660545811 0.8528804655508679
-105.72438446080908 -422.2552238348546 0.8519508232158159
-105.75681595161673 -422.3718202463781 0.8520883148294729
-105.78909734437367 -422.48854549139946 0.852227254666559
-105.57224841271938 -422.735419642142 0.8545089595363038
-105.60427582426603 -422.8523774249014 0.8546503952521789
-106.63457263392652 -422.4480877717681 0.8462065506752197
-106.41798454669805 -422.6949773193763 0.8484864849874043
-106.38779827372827 -422.84457757647965 0.8491634598336191
-106.35754800594553 -422.99426133123853 0.849841141225852
-106.32937138953372 -423.1429123656034 0.8505011449203153
-106.29951693321296 -423.2924896887513 0.851175734867752
-106.32970830789193 -423.41076270372224 0.8513340726630076
-106.30035966689229 -423.5601765289699 0.8520046262754022
-106.33246989035952 -423.6775487878568 0.8521467771590778
-106.30116409313435 -423.8280853202482 0.8528344768997158
-106.20918426583505 -424.01035357650875 0.8540441413836106
-106.24095922218744 -424.12805254014546 0.8541896485149891
-106.2107985011203 -424.27814207418834 0.8548679710002034
-106.05577476592818 -424.49347861950326 0.856620290699027
-106.08838584140018 -424.610892636891 0.8567590799321465
-106.12092298011906 -424.72839622577203 0.856898663966092
-106.27772227748936 -424.7810695155768 0.8559697393636156
-106.24854742618889 -424.930897221186 0.8566403720011522
-106.21863256951605 -425.08116181686694 0.8573175262735617
-106.25113180026797 -425.1988893502173 0.8574580729552963
-106.28311749523829 -425.31693611807884 0.8576031954542032
-106.25282743555573 -425.4675488520222 0.8582840512412986
-106.22244324855194 -425.6182613511524 0.8589658743832729
-106.25463378307414 -425.73635411842406 0.8591097122153997
-106.28667424661178 -425.8545764601533 0.8592550003928068
-106.19591550711506 -426.03696267771426 0.8604565194743827
-106.22704712653804 -426.15576151110366 0.8606099417472137
-106.19801340298015 -426.3060230346694 0.8612809432991071
-106.22995524417993 -426.42450123473196 0.8614277169382376
-106.19971892762435 -426.5754925064397 0.8621093784848881
-106.29424282861144 -426.66140089509787 0.861718271326879
-106.32674891918354 -426.77973870516905 0.8618606732975991
-106.35961023236047 -426.89794252479714 0.8620001808626512
-106.39213932188838 -427.0163712748058 0.8621427060790552
-106.42459862676242 -427.13488797277387 0.8622859920855603
-106.4571542574869 -427.2534059291148 0.8624286104453631
-106.55195504580855 -427.33948068142934 0.8620360916623895
-106.58497922213466 -427.4578574905202 0.8621750032260707
-106.74234854304126 -427.5113732541554 0.8612447317055967
-106.71307627210696 -427.6623746499223 0.8619197036285868
-106.74546687109213 -427.7812374784307 0.8620645480323788
-106.71480644031179 -427.9330661267475 0.8627517777590583
-106.62237137843468 -428.11719349005955 0.8639704136005548
-106.65474655074411 -428.2362187971935 0.8641158722378464
-106.68722082838063 -428.3552441789196 0.8642606401587614
-106.71970678110905 -428.4743153051008 0.8644054693341445
-106.87785135038888 -428.52784434858813 0.8634698343000196
-106.6596676490247 -428.7778685569192 0.8657706682857906
-106.69234999315296 -428.89699231243003 0.8659142923688137
-106.72504345047486 -429.0161622256018 0.8660579829121389
-106.88280530638299 -429.070100471277 0.8651262921783314
-106.91563062265323 -429.18930611373304 0.8652691748389998
-106.94838533517911 -429.30860065843774 0.865412826976069
-106.91896344973026 -429.4604016251895 0.8660913354096351
-106.88913809328878 -429.6124647494115 0.8667734743118558
-106.92164186454626 -429.7320460483326 0.8669197702049019
-107.0794473207482 -429.78627739815477 0.8659886895250111
-107.11226505712642 -429.905799733972 0.866132612622664
-107.14509511884505 -430.0253678636065 0.8662765925951135
-107.05258079869124 -430.21041098945983 0.8674986367702218
-107.21079278992691 -430.2646413258008 0.8665647186228398
-107.11799802658392 -430.4499343202882 0.8677894972114473
-107.15059993471617 -430.5698301814646 0.8679360898526625
-107.18329887437577 -430.68972777337336 0.8680820114005314
-107.21634651381287 -430.80949577603116 0.8682250977439026
-107.18598239821081 -430.9624119143529 0.868913652879769
-107.02965413177701 -431.1811222820807 0.8706855886745188
-106.99976116576882 -431.3338958070763 0.8713704142875827
-107.09523875961825 -431.421289891965 0.8709772911753362
-107.12813365302732 -431.54139897818754 0.8711225060937409
-107.16104180853097 -431.661553728912 0.8712677709528975
-107.13097320301199 -431.814628087635 0.8719547592343133
-107.16415255697979 -431.9347462863147 0.8720980193490959
-107.26001243931829 -432.0222053293526 0.8717024335418273
-107.29331762626371 -432.142363524355 0.871844941092661
-107.32664124143417 -432.2625648422512 0.8719874546406459
-107.35962718094711 -432.3829951528669 0.8721330365187328
-107.39262205792167 -432.5034735969431 0.8722787061877284
-107.42545359247994 -432.62409011073237 0.8724259452205843
-107.45829963014128 -432.7447519126828 0.8725732243686366
-107.4910767981107 -432.86550254139905 0.8727212606681292
-107.52403512703033 -432.98621154868425 0.8728679041440159
-107.55692586768276 -433.1070087750044 0.8730152939422737
-107.59008379486612 -433.2277195517899 0.8731605513642648
-107.62342668733176 -433.3483868187209 0.8733043835502485
-107.78259854615864 -433.4034459884492 0.872366358008378
-107.87941518748717 -433.4910978059289 0.8719647029641351
-107.97593486578369 -433.5789582554575 0.8715657689133991
-108.00920434595743 -433.6998773127256 0.8717108981144293
-108.10612357158101 -433.7876364205227 0.8713088624454599
-108.13968991399376 -433.90850721756516 0.8714517714663543
-108.23616292179287 -433.99660643841804 0.8710539073913992
-108.26942476043827 -434.11774289349887 0.8711997678113903
-108.36612691164183 -434.2058299405237 0.8708002682162146
-108.33598413927206 -434.360157066415 0.8714916802651373
-108.49577558850349 -434.4154323741066 0.870550009037629
-108.52911224757969 -434.5367436878044 0.870695893106813
-108.30887324508969 -434.7904178100102 0.8730224384302119
-108.34176050246003 -434.9120693226951 0.8731725165590092
-108.18491177408565 -435.13277206312085 0.8749542940493598
-108.21778437185348 -435.2545373385625 0.8751048291458687
-107.93354178440859 -435.54181317471176 0.8779823838787024
-107.90353755111168 -435.6964902510333 0.8786739213533679
-107.87230198909012 -435.851862794965 0.8793762122622866
-107.90548147102395 -435.9736802578559 0.8795247705479028
-107.8123003203932 -436.16147863398226 0.8807600558723152
-107.78225000948862 -436.3163920258725 0.8814526515309922
-107.8148952561757 -436.43864841549146 0.8816063032010675
-107.8480918614691 -436.5606708883513 0.8817553814172925
-107.94424863702086 -436.6498995002011 0.8813632440148922
-107.9777360734061 -436.77187811012385 0.8815101578119879
-107.94810030865945 -436.9268426875391 0.8822000229305331
-107.98151656896478 -437.04896586030713 0.8823478837690004
-107.95164427245349 -437.2041607592573 0.8830401161999362
-107.98498381701577 -437.32643150593236 0.8831889720914319
-108.01835409928279 -437.4487401812065 0.8833377319620013
-108.0515563072389 -437.57119053471763 0.8834881054397101
-108.08405323393366 -437.69406284803694 0.8836447119011837
-107.99094985266245 -437.88251242064496 0.8848814857489629
-108.02379515315661 -438.00531055942434 0.8850354320863971
-108.05753989776267 -438.1276935994015 0.885181813158681
-108.02782763997514 -438.28323420289246 0.8858740078822507
-107.9962133117856 -438.4398206564259 0.8865827250084521
-107.96590353764655 -438.5957802047291 0.8872803919913963
-107.99931328889122 -438.71855392821993 0.8874303269171264
-107.96806257717833 -438.87511197144545 0.8881364203626276
-108.0013999973632 -438.9980317173551 0.8882873149336774
-108.48211803471959 -438.88763436216175 0.884591545980129
-108.51557346202567 -439.0106032886734 0.8847417711884873
-108.48516697303717 -439.1669389425028 0.8854412853186773
-108.45474882688386 -439.3233345318866 0.886141067626852
-108.36145285311342 -439.51258242981055 0.8873816737374796
-108.39491336703932 -439.63576534844645 0.8875325308054585
-108.6837325735447 -439.62580454849535 0.885487860343801
-108.7172675895668 -439.74905885589476 0.8856384206153507
-108.3673827058911 -440.072360823954 0.8890859700452438
-108.40094035929242 -440.195710796878 0.8892366708197983
-108.43450592747612 -440.3191112971397 0.8893874739803778
-108.78779260763841 -440.2758032770687 0.8867893535653479
-108.88545147492555 -440.36588453335355 0.8863894027088008
-108.59858377542974 -440.6565826807592 0.8892959316573297
-108.50461257176924 -440.8467225202775 0.8905440268501934
-108.47465460689449 -441.0035285380843 0.891241880735663
-108.50793532711661 -441.1274056227608 0.8913961560199937
-108.60529644166961 -441.21791566768854 0.8909996182090367
-108.63931841326178 -441.341516221118 0.8911478632418834
-108.67300424298831 -441.46534703578686 0.8912991698672954
-108.70679206206265 -441.5891796322769 0.8914497709933471
-108.74050513846245 -441.7131062173705 0.891601186313494
-108.77440715247415 -441.83698930230526 0.8917511487333627
-108.80832541246073 -441.9609189863138 0.8919011432052457
-108.8422588125448 -442.0848958783364 0.8920511793380115
-109.06770421975276 -442.1090494767168 0.8905547262841083
-109.16577910532425 -442.1996864118718 0.8901536078589061
-109.19962118273723 -442.32387760580116 0.890304948969856
-109.233561579304 -442.44807275700134 0.8904556169534317
-109.20382911759768 -442.60552903683276 0.8911539264682915
-109.2374331834041 -442.7300098552763 0.8913078301419546
-109.20752707104567 -442.8876664418687 0.89200797497125
-109.3054703315423 -442.97870517523137 0.8916090272039696
-109.33956084883322 -443.1030983926058 0.8917592662248808
-109.30825481717783 -443.2616503172743 0.8924719631643256
-109.21403922273484 -443.4530631668881 0.8937257320290541
-109.18418123165704 -443.610969433337 0.8944263199764464
-109.21800588209177 -443.7357220088504 0.8945795332236344
-109.05870156613067 -443.96124032958653 0.896393447861783
-109.0282719962115 -444.11960925124475 0.897099463544123
-108.99634677059645 -444.27881311856015 0.8978185104673457
-109.0301621958327 -444.4037914228804 0.8979724919543628
-108.93693417010776 -444.5950719108813 0.8992189628618235
-108.9711196908601 -444.7199680422253 0.899370107841321
-109.13237711178233 -444.77865975875335 0.8984288699434728
-109.2958413311038 -444.83625773097924 0.8974688357649256
-109.45781603299761 -444.89468938943696 0.8965217861045858
-109.36386580327797 -445.08662361258627 0.8977753307574972
-110.30088434158044 -444.7410448907699 0.8901648964512674
-110.39955015936856 -444.83266035134454 0.8897627096052929
-110.4340435851134 -444.95779252516826 0.8899124439986394
-110.46818671434386 -445.08316332873795 0.8900653647655759
-110.17889599211746 -445.37722901370205 0.8929992881817839
-109.95566007029096 -445.63690698954827 0.8953654503100665
-109.8621629540789 -445.82899386339625 0.8966163119501402
-109.83151377362304 -445.9883675345511 0.8973269919838458
-109.73593630402375 -446.18164924702506 0.8985960836042182
-109.76971576622417 -446.3075420393518 0.8987531676016829
-109.73924278454399 -446.4669905653803 0.8994628526324959
-109.77341307119157 -446.5927917367312 0.89961692613997
-109.8070472693 -446.71892867871134 0.89977578426641
-109.84141547274058 -446.8447392409953 0.8999285072102339
-109.87517771996352 -446.9709220624595 0.9000866156683287
-109.90931001941989 -447.09696832519165 0.9002417183215243
-109.94310966526109 -447.2232444200465 0.9003998569095302
-109.58937540500732 -447.55161431085526 0.9038900477108882
-109.49474986581552 -447.74495423809987 0.9051526841413988
-109.46423668438322 -447.9049256580724 0.9058642800555958
-109.43229912354614 -448.0656955796943 0.906588296633231
-109.46655610509283 -448.19201274995055 0.9067433748301141
-109.43706622608534 -448.3516188993862 0.9074466973426638
-109.47143552179539 -448.47799046071265 0.9076011621162934
-109.50554570786886 -448.60455376826627 0.9077580313170301
-109.60355067000872 -448.69786518310116 0.9073657406078155
-109.63787813048974 -448.82442895893564 0.9075210964613234
-109.7370046167541 -448.91727012654803 0.9071195201979663
-109.83625870687831 -449.01010218352303 0.9067170258866781
-109.87091431051331 -449.13666591776354 0.9068700938410643
-109.90541257213322 -449.2633685441478 0.9070246918901148
-109.93956977947103 -449.39030585860286 0.9071823995853379
-109.97409095342272 -449.5171103826534 0.9073371556551137
-110.00854086377367 -449.64400902576085 0.9074927020701011
-110.04255611715757 -449.77119124343943 0.9076521631662899
-110.01232301339927 -449.93192040915096 0.9083641694058429
