179055.32641644086 320748.77188877476 23.150000000008617
25145.777938202944 45073.19321427997 23.150000000001228
406.6432260789571 745.280661038771 23.149999999999977
35041.63809477174 62845.20736318939 23.15000000000174
34057.353384127025 61100.05014751862 23.150000000001626
34045.88361959279 61099.12332076137 23.150000000001683
17362.865134219184 31177.66435925948 23.15000000000083
9383.62382828308 16862.693998557777 23.150000000000432
14892.32801493395 26760.98862746003 23.150000000000716
14785.53906064313 26577.761705430843 23.150000000000716
9296.253420270992 16721.97205756005 23.150000000000432
9293.770231511966 16722.89160250515 23.150000000000432
360.8599379507633 665.3321379564841 23.149999999999977
360.76221805037636 665.3683244284588 23.149999999999977
1907.3365003557863 3448.3856104001156 23.15000000000009
372.05342725651235 686.1156896137326 23.149999999999977
20966.135578325477 37765.883798460374 23.150000000001
21150.247669686407 38109.660203774736 23.150000000001057
20959.370010789986 37778.05415785792 23.150000000001
20944.748574072964 37763.888487772405 23.150000000001
21109.372923157232 38072.86017927885 23.150000000001057
21102.473027882756 38072.70287495787 23.150000000001
20930.50854195895 37774.770265736995 23.150000000001057
60580.868915585954 109338.67048727104 23.15000000000299
60564.63771588353 109344.68103221452 23.15000000000299
57802.247608991835 104391.86382086016 23.150000000002876
54964.932153416536 99300.50334155801 23.150000000002706
54885.10191922942 99188.34693510151 23.150000000002706
54725.01569107426 98931.05310601159 23.150000000002706
788902.3413260696 1426405.495375221 23.15000000003903
777126.1975560593 1405567.8105601736 23.15000000003846
2504.624856144568 4547.958957383815 23.15000000000009
476.2827772449946 878.4878823275243 23.149999999999977
3968.561874689717 7201.221694101662 23.150000000000148
357.1013962104124 663.214886351277 23.149999999999977
5275.255545856979 9573.060661968588 23.15000000000026
31810.198621972686 57661.91554239858 23.15000000000157
31801.645416247167 57665.082863876145 23.15000000000157
32260.7108003176 58516.202362451746 23.15000000000157
31784.539004796112 57671.41750683126 23.15000000000157
589929.0553110832 1070452.7244932493 23.150000000029422
344.55136878193423 641.9235648195 23.149999999999977
73872.7496287184 134146.79862676907 23.150000000003672
73852.8562176489 134154.1653182955 23.150000000003672
69398.59172421477 126186.68906703529 23.150000000003445
71596.96330978793 130225.68948455362 23.15000000000356
71702.042720993 130459.12574685094 23.15000000000356
73712.07467996827 134159.38293719644 23.150000000003672
73793.33257394488 134350.87409048594 23.150000000003672
354.9708904201225 663.3854573683495 23.149999999999977
354.762998527416 663.2197095178423 23.149999999999977
1961.4518582908488 3593.0253516822904 23.15000000000009
343.6167915532585 643.3158979675234 23.149999999999977
343.52257019275686 643.3507889017926 23.149999999999977
3304.830428857176 6048.395749804506 23.150000000000148
31236.1664561008 57045.89446393026 23.15000000000157
342.87220621475046 642.7839164886441 23.149999999999977
458724.1625718337 838075.8375129723 23.15000000002317
29972.84851689282 54792.86583652389 23.150000000001512
30766.202579250705 56261.05875890005 23.150000000001512
29952.628588607124 54791.58378825242 23.150000000001512
28793.109379453705 52688.305959708865 23.150000000001455
28771.84361728498 52666.5596296369 23.1500000000014
594106.1954296754 1087533.3921215856 23.150000000030218
767219.9238048347 1404877.5269609573 23.15000000003903
358.1710760495749 672.6722190716562 23.149999999999977
378.24111967391167 709.663529420394 23.149999999999977
378.140214073022 709.7076549066683 23.149999999999977
229260.58657711904 420365.0648004267 23.150000000011687
47412.42882284164 86975.5086075992 23.150000000002365
47386.14297984262 86955.67328768969 23.15000000000242
45568.38539151029 83647.94708082698 23.150000000002308
45459.781906813216 83475.87950522246 23.150000000002308
21778.13593089393 40011.99923659591 23.150000000001114
21772.214480776263 40014.191997618844 23.150000000001114
126505.41569995704 232494.64811937005 23.150000000006457
126100.6393324408 231826.5461120369 23.1500000000064
126436.59793010818 232520.13189790578 23.150000000006457
114037.90305957764 209788.82849318584 23.150000000005832
284491.6606964248 523508.88336140406 23.150000000014586
586744.5744977242 1080036.775189401 23.15000000003016
383475.51723445806 706110.622012304 23.150000000019702
387107.65429077845 713031.7823175044 23.15000000001993
578592.382044209 1066077.1552507211 23.15000000002982
601329.0026281308 1108332.3389794724 23.15000000003107
595022.572197366 1097068.0851179648 23.150000000030673
597551.9904778271 1102092.5255618442 23.150000000030843
126483.5533832732 233368.99712584435 23.15000000000657
114480.71600485085 211293.9187331539 23.15000000000589
114007.08695212344 210488.79822174643 23.15000000000589
40418.49774392838 74659.02659685229 23.15000000000208
161644.74825209158 298629.952178144 23.15000000000839
57897.501564949234 107008.30790662531 23.15000000000299
57921.155173681276 107087.13918267057 23.150000000003047
56629.58452973782 104733.95600922481 23.150000000002933
56538.24156550288 104599.36775993048 23.150000000002933
75260.6742694795 139277.24597445258 23.1500000000039
75119.34721180392 139061.3854101144 23.1500000000039
75224.57789266297 139301.9022674102 23.150000000003956
52442.91545071909 97151.47186395786 23.150000000002706
51464.40339761364 95370.39759997786 23.15000000000265
53725.592976544984 99592.66860809665 23.150000000002763
70799.37438592257 131280.65362660013 23.15000000000373
575438.1266644532 1067245.2016102495 23.150000000030104
568190.0618076001 1054149.2542253223 23.150000000029763
160939.48644304203 298697.3419405081 23.15000000000839
141098.9888208188 261962.38540233913 23.150000000007424
125012.79177501435 232175.26889656423 23.150000000006514
125788.81297585847 233693.2989201072 23.150000000006628
59176.86152073298 109985.17211311618 23.150000000003104
62456.31053461091 116117.60066602899 23.150000000003274
62439.158748063135 116123.95211175056 23.150000000003274
66244.06689154831 123239.862827774 23.150000000003445
7941.162790276247 14793.280807704077 23.150000000000375
7968.60050485833 14849.22591290878 23.150000000000375
15235.191654762188 28384.352186678974 23.15000000000083
11482.242367012936 21403.496067674878 23.150000000000603
11306.338101032628 21082.80708430221 23.150000000000603
379436.34231958474 707218.2106472221 23.150000000020043
226948.72341268772 423148.1552690682 23.150000000012028
160242.63188496057 298877.52088092855 23.150000000008504
160932.64604782342 300263.519890265 23.150000000008504
162051.92215722214 302451.54772100976 23.15000000000856
161201.2433475205 300963.30213988567 23.150000000008504
573073.7877115065 1070241.3631518607 23.150000000030445
374276.9531528146 699216.0052116985 23.150000000019872
226833.69987162083 423912.4105577157 23.150000000012028
228066.44648719032 426356.99226337863 23.15000000001214
188524.43059736735 352554.92326682457 23.15000000001004
161862.54809035783 302797.66546920256 23.15000000000856
160710.76637852457 300742.5798963676 23.150000000008504
160158.37510441584 299808.0881238868 23.15000000000856
140459.44319808975 263021.79536743136 23.150000000007424
160976.84344120944 301539.622336387 23.15000000000856
160504.93692562333 300755.23800360406 23.15000000000856
160887.87071762813 301572.5696578193 23.150000000008617
187316.0301024571 351223.7519927551 23.15000000001004
187954.51840626646 352537.63206827675 23.150000000010095
561750.0717070757 1053964.3936084954 23.15000000003016
373187.0144896013 700417.1088931009 23.150000000019986
38401.86414804657 72113.64510009663 23.150000000002024
576996.5184128708 1083646.5594495686 23.150000000030957
594869.2093865551 1117582.9397171657 23.150000000032037
580455.6773486935 1090866.3449106596 23.150000000031298
581873.8730933082 1093894.3949391101 23.150000000031298
573988.0404197109 1079427.7619547704 23.1500000000309
566928.023339906 1066504.9845604484 23.15000000003056
372229.6176237257 700476.6340449309 23.1500000000201
372168.37830672535 700593.9823421395 23.1500000000201
371905.79165994603 700332.237095696 23.1500000000201
281011.6740784289 529350.3310399966 23.15000000001521
225070.3179038308 424116.13045365707 23.15000000001214
224829.86271303182 423803.8634890926 23.15000000001214
279233.29847947275 526525.1473041422 23.150000000015098
225183.18700144097 424752.1743270054 23.1500000000122
224795.42503239986 424161.82205260877 23.1500000000122
187597.92345223748 354095.18584911485 23.15000000001021
557404.8835125174 1052430.7254124656 23.15000000003033
223366.67976838496 421886.9444446051 23.15000000001214
188291.3484559243 355758.9704324711 23.15000000001021
279863.77885056904 528944.4073916269 23.15000000001521
278984.52701863257 527458.2865389885 23.150000000015154
375658.36839169805 710464.1115530946 23.150000000020498
379085.78256394574 717184.9518779678 23.15000000002067
384238.96028774633 727176.1957267512 23.150000000020952
578997.3877220482 1096115.2395594642 23.150000000031582
574119.4746938326 1087243.2835625955 23.150000000031355
582888.795118262 1104218.143095327 23.150000000031923
590222.9768993009 1118484.7121851766 23.15000000003232
577230.8160067139 1094229.6537233896 23.150000000031582
372902.4323664708 707135.7350165913 23.15000000002044
185771.99246613024 352405.9465294454 23.15000000001021
562361.3453370417 1067110.6565485538 23.1500000000309
563481.9938682022 1069594.1985117167 23.150000000031014
580579.675242691 1102416.4070443455 23.150000000031923
61330.59815437508 116509.84298618323 23.150000000003388
61306.991430631984 116503.922777838 23.150000000003388
47938.33430038535 91133.11958776471 23.15000000000265
46062.75553649767 87597.49097209441 23.150000000002535
45876.26057699204 87272.0753231995 23.150000000002535
78675.25009799309 149704.71471096168 23.150000000004354
73612.88863411281 140119.91285770762 23.150000000004013
68792.45109127829 130989.28378794315 23.150000000003843
138532.10587496572 263853.242675786 23.15000000000765
122704.61818466234 233787.8201004095 23.1500000000068
122911.84987889855 234261.04593570266 23.1500000000068
122592.35434357091 233730.412987175 23.1500000000068
56394.43624258912 107564.9051907848 23.150000000003104
122635.70675431215 233969.76471158222 23.1500000000068
220498.2280799193 420803.5993068474 23.1500000000122
277054.9450256633 528910.5607481495 23.150000000015382
370025.8394164406 706627.414953611 23.15000000002061
566003.3841829657 1081233.4628881065 23.150000000031525
583228.3832997249 1114511.540256897 23.15000000003255
578898.6849012502 1106609.092252399 23.150000000032264
584627.1397519327 1117934.385334156 23.150000000032605
578700.4058929378 1106972.8405817212 23.15000000003232
580771.4059026036 1111307.3403249132 23.150000000032435
576290.6435513677 1103103.881137839 23.150000000032207
589031.171233324 1127869.4816643705 23.150000000032946
594351.7402808924 1138439.481862739 23.150000000033288
601314.667352126 1152163.378581721 23.150000000033742
607217.5389891342 1163864.6631600717 23.150000000034083
610962.9358265226 1171437.1741633683 23.150000000034254
78415.59140517979 150416.4988787194 23.150000000004354
78467.61062266593 150566.9005063483 23.15000000000441
573449.3777503363 1100621.1099772279 23.150000000032264
574448.1557762243 1102909.0851559187 23.150000000032378
571551.3756690925 1097716.899488038 23.15000000003215
68390.20514330601 131408.90728246485 23.150000000003843
64460.281090581986 123900.41318281852 23.150000000003672
64378.647057672824 123785.20501666993 23.150000000003672
109683.60003564901 210955.1649405086 23.150000000006173
109439.21511898468 210556.10796540973 23.150000000006173
568676.5940347316 1094405.2467397784 23.15000000003215
375843.763977108 723552.4813977012 23.150000000021237
374000.6746898518 720247.1661168266 23.15000000002118
376102.4963024672 724539.0510963472 23.150000000021294
377283.8014386861 727059.9290931071 23.150000000021407
369961.93813738116 713190.9643542746 23.15000000002101
370862.22172105 715167.75380014 23.150000000021066
372912.80418990384 719364.7749771832 23.150000000021237
374315.3063804526 722314.0374631275 23.150000000021294
563383.1816264908 1087515.7757923594 23.150000000032094
565976.1422460473 1092890.0781381372 23.150000000032264
554887.4306833782 1071840.3877427208 23.150000000031582
551237.6907213602 1065150.4381426007 23.15000000003141
273550.76062400494 528766.4064856129 23.15000000001561
365548.8044136795 706829.3847922559 23.150000000020896
548233.4668968717 1060420.5562051856 23.150000000031298
556838.2409747625 1077428.4601894745 23.15000000003181
559147.4246111261 1082262.5452965708 23.150000000032037
555770.9549844185 1076091.3980609397 23.150000000031866
555265.7883791191 1075477.2826968634 23.15000000003181
361931.2021077024 701256.7984862073 23.150000000020725
218216.08013235894 422952.7664858684 23.15000000001254
219308.519958216 425214.0846652358 23.150000000012597
219708.1843572304 426133.3066792666 23.150000000012597
220561.29442845323 427932.8758952122 23.150000000012653
364686.9445298214 707794.0328612368 23.150000000020952
369913.35821762815 718180.7972319918 23.150000000021294
568938.0906140687 1104949.506991997 23.150000000032776
580151.6499112577 1127109.5597476787 23.150000000033458
589821.9188199948 1146285.358845747 23.150000000034026
594639.2478221352 1156039.6607560562 23.15000000003431
599861.7820652435 1166588.5596307472 23.15000000003471
593693.7610507656 1154985.4620181932 23.150000000034368
598860.8355778564 1165433.156083598 23.15000000003471
591971.9305127254 1152418.3392880103 23.15000000003431
581609.871230618 1132631.0925647346 23.150000000033742
571160.5245881375 1112660.313447334 23.150000000033174
560758.8421105357 1092768.7971945277 23.150000000032605
563130.4132250722 1097763.4347275016 23.15000000003272
557477.3057778442 1087113.0882476545 23.150000000032378
557317.9649383153 1087172.0934533617 23.150000000032378
545326.9647323851 1064143.338903092 23.150000000031753
363385.9423198604 709353.2836044747 23.15000000002118
559548.917676436 1092638.8790459859 23.150000000032605
567212.4908065972 1107980.5582865526 23.15000000003306
374825.9060732097 732431.9939622764 23.150000000021862
376660.2215803258 736267.0071730722 23.150000000022033
369365.05807428167 722253.3261439754 23.150000000021578
363301.67635271116 710639.4445561405 23.150000000021294
270183.65345724236 528679.6981859675 23.150000000015837
155675.9067053614 304728.7557668547 23.15000000000913
181366.4576389988 355135.11862200225 23.150000000010607
181067.74615623444 354671.18842706 23.150000000010607
181302.91483677685 355252.98621026136 23.150000000010607
358466.53694551915 702618.1306693766 23.15000000002101
544366.153760498 1067348.9846169578 23.150000000031923
361918.8641733192 709869.2337403654 23.150000000021294
360810.08580852655 707936.2296142441 23.150000000021237
359891.14039607794 706374.4630054188 23.15000000002118
544065.3903982283 1068217.566164534 23.150000000032037
543711.3457736233 1067887.304139606 23.150000000032037
545670.0204681464 1072100.599409024 23.150000000032264
541447.5647915311 1064168.4554435483 23.15000000003198
543507.7150909562 1068582.7883285203 23.15000000003215
371875.45730207546 731394.6264767814 23.150000000021976
573760.948433912 1128834.3194629601 23.15000000003397
573459.9299094392 1128628.2471538999 23.150000000034026
362696.9150204617 714075.6362008002 23.15000000002152
267626.4293212021 527086.3550480205 23.150000000015893
538296.951445824 1060513.6169816072 23.150000000031923
178892.6995430711 352573.71388791595 23.150000000010607
542612.1613875208 1069747.6490657814 23.150000000032264
564644.4610011175 1113564.6614962898 23.15000000003357
587523.3322105634 1159081.7913616938 23.150000000034993
134571.65834764167 265590.9617197335 23.150000000007992
554924.0178970232 1095520.9625106445 23.15000000003306
557620.7129021874 1101222.3029033584 23.150000000033288
362549.896664862 716236.6844088514 23.150000000021635
361432.07324978564 714273.488171786 23.150000000021578
364413.0376849991 720411.655721164 23.15000000002175
367674.6520011256 727109.0088613101 23.150000000021976
553464.5092515892 1094891.9848522367 23.150000000033174
558624.6756085231 1105479.582660671 23.150000000033458
559285.506005281 1107167.6216593073 23.150000000033515
555059.1673510204 1099178.9136418144 23.150000000033288
557320.1131276909 1104035.5990519153 23.150000000033515
561574.9494387334 1112846.7213639338 23.150000000033742
537758.6807851716 1066018.4071595313 23.15000000003232
537602.8378857463 1066076.1170496373 23.15000000003232
181337.7384693365 359731.25280969706 23.15000000001089
181285.15521443298 359750.724815628 23.15000000001089
153352.10138155942 304426.5135499425 23.150000000009243
133704.25969855458 265516.277757078 23.15000000000805
132703.429289789 263619.6785759582 23.150000000007992
132929.67088451018 264160.0601653779 23.150000000007992
151601.78884252385 301366.97663202323 23.15000000000913
267586.1155256478 532100.5620719119 23.15000000001612
267529.8110182522 532172.0120758006 23.150000000016178
354916.1928407199 706239.3394967079 23.150000000021464
132610.89351168886 263981.1977843009 23.150000000007992
62688.61210266377 124842.9941388047 23.150000000003786
59180.03923862141 117897.39121050909 23.15000000000356
132495.19567519482 264024.04163188214 23.150000000007992
176486.34033396828 351801.11972906406 23.150000000010664
532798.7232158479 1062392.1947179076 23.150000000032378
117640.87626654925 234668.6386051383 23.15000000000714
81529.96662848182 162696.55706747188 23.15000000000498
89009.58459121063 177682.23856439302 23.150000000005434
532244.5662231323 1062754.8643362764 23.150000000032435
534175.6254895511 1066979.4035778448 23.150000000032605
533969.966944934 1066937.470596472 23.150000000032662
540531.3624515584 1080421.3286512326 23.150000000033003
563247.8971225825 1126216.237209475 23.150000000034424
574675.6771254557 1149463.4342001157 23.150000000035163
560639.445729592 1121776.8368273021 23.15000000003431
537356.6444326238 1075563.5534938702 23.150000000033003
530904.2774970334 1063016.8382150289 23.150000000032605
352955.6888985707 706965.3300132547 23.150000000021635
352767.2114012783 706832.6442166275 23.150000000021635
352664.05192511634 706870.8450076462 23.150000000021635
352560.8924489541 706909.0457986649 23.15000000002169
352457.73297279206 706947.2465896838 23.15000000002169
353210.919317462 708703.6287574867 23.15000000002175
352251.41402046784 707023.6481717215 23.15000000002169
265892.0145052466 533876.3010791604 23.150000000016348
212577.89225280596 426980.1776077476 23.15000000001305
211439.16929961552 424840.4829919208 23.150000000012994
211315.8157802674 424740.0722338909 23.15000000001305
210939.65926863032 424131.29186894366 23.15000000001305
263868.04113032535 530733.0342823777 23.150000000016348
263268.0488445166 529710.2743974363 23.15000000001629
263190.79006989015 529738.8839485282 23.15000000001629
262643.01217942045 528820.155324161 23.150000000016234
116775.82311152182 235214.47182177356 23.150000000007253
116743.8139997776 235231.7892885651 23.150000000007196
131210.66192531626 264471.42517364625 23.150000000008163
116675.21245257027 235257.19299810237 23.150000000007196
116638.6227094756 235265.27824384216 23.150000000007253
116606.61090536293 235282.5967076396 23.150000000007196
116470.9783329716 235090.78070756252 23.150000000007196
116336.37530931002 234900.9008934471 23.150000000007196
80539.85265238611 162684.31163129333 23.15000000000498
65641.66700811163 132640.57175988823 23.15000000000407
69861.88181254966 141216.33639431233 23.150000000004354
69955.53833119594 141454.92588078565 23.150000000004297
116165.16816460289 234964.3002882405 23.15000000000731
95067.8807743007 192361.62200942746 23.150000000005946
95039.84955942808 192372.0021957292 23.150000000005946
80480.3808664492 162961.43964665063 23.150000000005036
95128.70235804908 192686.2662864036 23.150000000005946
95092.025186472 192679.23176976302 23.150000000005946
95374.01972645898 193318.0569237939 23.150000000006003
115925.478162013 235053.0594409514 23.15000000000731
115995.80474029627 235277.82193878258 23.150000000007253
149161.3009419681 302649.1143753782 23.150000000009356
208617.5552944396 423427.1434000831 23.150000000013108
95578.775175981 194071.8157627024 23.150000000006003
115752.8371287555 235113.5465841387 23.150000000007253
115907.44946086864 235509.92477289497 23.150000000007253
105335.60149662149 214105.70417156248 23.150000000006628
115843.1040362773 235543.9631186087 23.15000000000731
69536.58981399341 141445.39396701733 23.15000000000441
74395.84941761733 151381.44259264856 23.150000000004695
61226.17986178963 124630.4166103449 23.1500000000039
65009.470732436115 132376.8544979091 23.150000000004127
69261.54897169505 141083.5019792752 23.150000000004354
61205.77057132509 124719.89412415554 23.150000000003843
69446.55794263631 141559.5035776047 23.15000000000441
69742.83259834858 142213.20471932818 23.15000000000441
208083.98043817544 424419.6484144343 23.150000000013222
208334.0065992532 425078.67989466595 23.15000000001328
207946.1778615701 424436.2945103762 23.150000000013222
208203.1297488434 425109.90279732214 23.15000000001328
207836.89364980307 424511.1466569351 23.150000000013222
173053.4199220723 353592.27205182816 23.150000000011005
129934.14175007044 265586.2500186161 23.150000000008276
115212.35037164435 235579.55485913347 23.150000000007367
115390.27240590591 236026.25233003983 23.15000000000731
147950.71145166742 302728.7405797796 23.150000000009413
54626.03309210327 111823.28538419984 23.1500000000035
172744.72498328026 353706.5842922939 23.15000000001106
73901.64549384544 151382.00160658403 23.150000000004695
51782.564732779516 106115.33409130368 23.150000000003274
73859.47100213966 151402.12285993012 23.150000000004695
54594.865575570606 111956.24865833382 23.150000000003445
68893.07215283113 141322.3134771191 23.150000000004354
68944.33791116926 141477.27481351054 23.150000000004354
68921.44574254747 141480.12958891626 23.15000000000441
68863.79811577086 141411.61970831908 23.15000000000441
79357.04578655727 163014.21309822303 23.150000000005093
68933.98911966827 141655.5552769324 23.15000000000441
114587.94890060315 235543.2305386993 23.150000000007367
114646.08530598601 235745.8504227847 23.150000000007367
114522.30501889369 235574.4266161464 23.150000000007367
94075.11159466034 193585.6425215287 23.15000000000606
93905.79731366219 193305.47381213002 23.15000000000606
57257.0293741423 117912.37076353165 23.15000000000373
57239.89367089082 117918.71625347814 23.15000000000373
54256.282255410835 111812.64775397298 23.1500000000035
93653.46200085538 193058.60451122938 23.150000000006003
93489.72296478694 192789.21337951827 23.15000000000606
93460.23574247747 192796.54328804353 23.15000000000606
93432.22428624368 192806.91615756103 23.15000000000606
85674.02667544503 176861.08997217886 23.150000000005605
68534.84102044954 141533.43518974693 23.150000000004468
64192.71521875143 132614.410778876 23.150000000004127
60423.92594899554 124873.77167163107 23.150000000003956
60437.192392196026 124945.40256755894 23.150000000003956
103444.598003699 213920.2449406817 23.15000000000674
113978.21924744867 235785.12616947896 23.150000000007424
103147.03811526361 213456.10513871757 23.15000000000674
102669.20911994587 212542.64605351354 23.150000000006685
520200.98217091424 1077213.4606306038 23.150000000034083
102522.32782023108 212389.11184183063 23.150000000006685
57144.715997452426 118433.00841621109 23.15000000000373
54122.38611562317 112209.92962832724 23.1500000000035
53940.87245507434 111873.34340254463 23.1500000000035
93013.52069220187 192965.5549447772 23.150000000006116
93112.87272656296 193240.22618821482 23.15000000000606
102411.5248472058 212611.71524919773 23.150000000006685
128033.50648685501 265894.24362485536 23.15000000000839
127994.91368752046 265908.5348515759 23.150000000008447
127971.71112795746 265954.80841065064 23.150000000008447
56743.97945806965 117978.95518571362 23.15000000000373
63794.495149719536 132682.93668293432 23.150000000004184
56732.08286022762 118038.11818259636 23.15000000000373
68040.48388521966 141613.44181951138 23.15000000000441
68021.8167271525 141624.96427892716 23.150000000004468
67968.4031950405 141564.12914022105 23.150000000004468
113288.88813352393 236029.41012077048 23.15000000000748
127422.77310892589 265568.65840854356 23.150000000008447
92685.22751012933 193243.93784507527 23.150000000006173
72869.2462313716 151986.5771888323 23.150000000004866
92568.4649294072 193138.0630336951 23.150000000006116
514849.7745696274 1074501.7610051276 23.150000000034254
40697.51284838234 84983.27110547152 23.150000000002706
40698.10012603352 85014.79985714641 23.150000000002706
42355.671211622495 88508.14938324773 23.15000000000282
32812.607380268164 68595.06377558812 23.150000000002137
36324.13365327754 75961.1230743752 23.150000000002365
37670.16988160012 78803.4108664895 23.15000000000248
37714.87853802023 78925.08401885835 23.15000000000248
101552.14961190558 212561.49295670143 23.1500000000068
44273.31172245374 92712.8462189854 23.150000000002933
44255.451119066085 92708.5628088678 23.15000000000299
44154.85807492577 92530.93223000385 23.150000000002933
44105.71930468579 92461.01633921881 23.150000000002933
40613.208773771854 85171.35372538645 23.150000000002706
40550.164174833655 85069.5817401707 23.150000000002706
42215.41052818238 88594.02201173603 23.15000000000282
48254.09257640801 101300.57826374973 23.150000000003217
48239.41380750613 101306.01393097195 23.150000000003217
338905.611409813 711871.2497308549 23.15000000002283
53269.24505610888 111947.24916968735 23.15000000000356
56238.53036590054 118228.6418458984 23.15000000000373
56297.64322838152 118395.29703434782 23.150000000003786
56306.56195467398 118456.48583998498 23.150000000003786
56165.18728111408 118201.4646802416 23.150000000003786
91930.36574249927 193528.3728866782 23.150000000006173
44059.801989189815 92795.67328678652 23.15000000000299
44043.35058562928 92794.30627709605 23.150000000002933
43940.27368622706 92610.39457019356 23.150000000002933
43863.251852016736 92481.27108091183 23.150000000002933
37464.2595861993 79020.61750963658 23.150000000002535
38836.57663654013 81943.89995548551 23.150000000002592
144111.676920389 304131.33553185745 23.15000000000981
91640.93767122159 193473.83357405287 23.15000000000623
63056.822893389144 133180.0431406868 23.15000000000424
100749.20371245216 212854.4865035245 23.150000000006855
62992.077092895204 133138.98858808752 23.15000000000424
62972.804148160096 133146.12551589613 23.150000000004297
252919.32163805203 534896.2892561818 23.150000000017258
252361.32812435084 533908.2811668819 23.1500000000172
35927.669781403994 76053.1958343514 23.15000000000248
43717.631544635544 92572.71793703016 23.15000000000299
43704.70647221539 92578.6777551915 23.15000000000299
41883.62013954961 88753.81841396922 23.150000000002876
40222.59273452359 85265.42678334456 23.150000000002763
77251.03457621901 163802.16758798232 23.150000000005264
71792.35985985787 152283.80563623024 23.150000000004923
37255.42927577013 79062.27768710419 23.150000000002535
35894.84018822144 76203.00870617322 23.15000000000242
37156.97141811378 78910.27096905863 23.150000000002592
34602.18119066073 73512.41761646776 23.150000000002365
47756.255597603806 101488.02810852304 23.150000000003274
47740.33566484166 101490.82661652724 23.150000000003274
50095.95245898847 106536.17824446461 23.150000000003445
41727.562654622445 88774.67603752388 23.15000000000282
41701.141188355614 88750.52716146641 23.150000000002876
41688.30726633078 88755.27966692168 23.150000000002876
43502.38764201374 92650.18414017717 23.15000000000299
43489.88717899474 92657.05352345647 23.15000000000299
125401.64074779818 267236.0613061238 23.150000000008674
125363.00271421176 267250.3692834549 23.150000000008674
62512.45457694222 133322.10550013115 23.150000000004297
38523.32039030724 82196.4749888437 23.15000000000265
58824.87297351623 125549.40189769721 23.15000000000407
62516.006248350895 133474.53243544375 23.150000000004297
26256.972989448514 56090.65224072237 23.150000000001796
25614.522729682005 54738.503326878614 23.15000000000174
58720.271219913266 125507.87560208351 23.15000000000407
62373.247249253036 133362.89016982474 23.150000000004297
43357.61049769227 92743.88975803475 23.15000000000299
47440.92823589987 101513.38392918605 23.150000000003274
47460.26122917964 101591.58353449448 23.150000000003274
47480.922131118234 101672.67894283618 23.150000000003274
47450.02301685647 101643.40151751788 23.150000000003274
47437.00904147045 101652.4179719611 23.150000000003274
58519.60332091661 125442.52085002325 23.150000000004013
58527.5752166637 125505.17578133565 23.150000000004127
52347.10136753873 112294.61130882082 23.150000000003672
52375.02828482914 112395.33976317297 23.150000000003672
142377.9819470801 305618.9812373744 23.150000000009925
142166.85121629044 305276.76776949957 23.150000000009925
31061.76397095275 66737.80562556331 23.150000000002137
32037.653857708367 68859.02311401894 23.150000000002194
32036.50957683279 68881.61783523308 23.150000000002194
32035.243717141857 68903.96489195098 23.150000000002194
32010.014219300174 68874.7774777403 23.150000000002194
29211.12475992654 62876.987361763626 23.150000000002024
39638.418402134674 85346.32915889258 23.150000000002763
36689.6067358238 79027.31484497618 23.150000000002592
39625.50087791787 85380.708983596 23.150000000002763
39613.17673547924 85385.27271353436 23.150000000002763
39588.84854396261 85363.95808480764 23.15000000000282
38065.69441301212 82110.27339633205 23.15000000000265
39564.495421837695 85373.70343827899 23.150000000002763
39565.04078938216 85406.03244811726 23.150000000002763
39552.716285454895 85410.59631191778 23.150000000002763
29948.98657233976 64700.22977705407 23.150000000002137
38005.903743047034 82131.04772483489 23.15000000000265
36585.873853689096 79091.91289595955 23.150000000002592
36574.46302709061 79096.13841763201 23.150000000002592
29134.53615621774 63033.25046062555 23.15000000000208
29166.881183579473 63126.27611747632 23.15000000000208
29124.322336702782 63057.23950501014 23.150000000002024
123615.33267188397 267678.89108411944 23.150000000008788
109809.46536436875 237872.45001205386 23.15000000000782
42895.999197707875 92967.699474308 23.150000000003047
46914.5508044032 101712.5355473602 23.15000000000333
41186.23170701937 89328.2461377463 23.150000000002933
41124.973320356 89228.07560971793 23.150000000002933
89645.03410222793 194550.799769543 23.1500000000064
89684.46064331773 194707.6756960582 23.1500000000064
89588.92706758532 194571.5766597019 23.1500000000064
82029.07865555464 178219.75761952178 23.15000000000589
70274.28212631901 152739.41462694833 23.15000000000498
70294.13920932169 152838.6088991056 23.15000000000498
28148.413910014522 61235.756169214386 23.150000000002024
28139.587506071726 61239.02465820843 23.150000000002024
28148.222113196734 61280.295404458404 23.150000000002024
28078.93331214989 61151.93877626329 23.150000000002024
27301.133142827133 59480.343933185366 23.150000000001967
26539.54241298676 57842.83565043416 23.15000000000191
25884.55615238604 56436.47726896066 23.150000000001853
25175.00134164209 54910.10104462035 23.150000000001796
25781.625320549265 56253.46125679393 23.150000000001853
22806.965554635706 49783.4060401695 23.150000000001626
22804.598623773963 49796.55055445452 23.150000000001626
23325.59408268165 50952.525871809645 23.150000000001683
40790.38121330988 89121.72192916895 23.150000000002933
40803.51639216505 89183.23344657727 23.150000000002933
40778.19532062128 89160.72025779588 23.150000000002933
30550.611176036346 66827.52092089181 23.150000000002194
25156.330669366613 55051.39280119819 23.150000000001796
30538.46413975619 66850.19269622317 23.150000000002194
30528.611156083996 66853.26296980512 23.150000000002194
31496.067006396886 68996.69883888756 23.15000000000225
31501.58744437275 69034.23897207467 23.15000000000225
27890.41519002066 61145.18173084451 23.150000000001967
39033.942040864196 85599.76802063614 23.15000000000282
39033.27418108688 85629.89741865064 23.15000000000282
39033.148397196186 85661.23506684045 23.15000000000282
39034.631324130125 85696.1234741879 23.150000000002876
40597.13026262515 89158.597896062 23.150000000002933
38984.50869130181 85649.35666884441 23.15000000000282
40572.063364252375 89169.42291792034 23.150000000002933
40572.97284323749 89204.38589067597 23.150000000002933
42324.37189600941 93088.65328928527 23.150000000003047
42326.39978802638 93127.54509863009 23.150000000003047
22615.15571708429 49785.3981241738 23.150000000001626
327542.2639786527 721075.3403750308 23.15000000002408
48619.981889380746 107090.89707269902 23.1500000000035
64788.12538178149 142749.7253572309 23.150000000004695
64801.34079806577 142831.72053681823 23.150000000004752
64780.791358886214 142839.33016087662 23.150000000004752
22584.992736964046 49829.58493053054 23.150000000001626
22581.689320386835 49840.76475054243 23.150000000001626
23094.655521038978 50991.42601895345 23.150000000001683
24863.921963116416 54916.787512595 23.150000000001796
24865.269204033833 54940.133333308615 23.150000000001796
24853.267157871214 54933.99786938618 23.150000000001796
26184.203812870106 57896.29988320523 23.15000000000191
26182.143533720035 57913.23659140751 23.15000000000191
26173.95312596638 57916.623431273714 23.15000000000191
25506.167597026964 56460.41035407025 23.150000000001853
24864.97059041164 55061.97170616459 23.150000000001796
24864.395589437667 55081.160184109336 23.150000000001796
24864.897137046206 55102.74567197479 23.150000000001796
24852.986400074813 55096.83736300296 23.150000000001796
29279.135208246953 64930.05277744805 23.150000000002137
29276.845254107884 64949.12916068953 23.150000000002137
31157.032411814012 69144.7552132112 23.150000000002308
31147.094527547317 69148.43529238731 23.150000000002308
22451.86532279099 49868.23410491959 23.150000000001626
21925.662207626025 48718.045394413115 23.15000000000157
33255.50304717885 73910.49030557458 23.15000000000242
33253.774047033694 73934.18736548045 23.15000000000248
45988.65771701557 102279.06714762139 23.150000000003445
33232.527054050784 73942.05529937187 23.150000000002535
22400.04795194112 49864.53049429211 23.150000000001683
22392.88448422122 49867.18318451038 23.150000000001683
22927.567916670694 51076.48682894054 23.15000000000174
22938.569410113298 51120.056958078996 23.15000000000174
22451.818192054212 50054.37324248164 23.150000000001683
22437.372834252412 50040.858493547545 23.150000000001683
22419.28463248865 50019.20720494328 23.150000000001683
22406.80210709268 50010.044480372155 23.150000000001683
22383.150030054603 49975.94340043613 23.150000000001683
22377.379936216545 49981.74086680908 23.150000000001683
22917.414778735478 51206.64340570937 23.15000000000174
23415.737075506768 52339.25686101111 23.150000000001796
22359.821316081016 49998.592264312094 23.150000000001683
22311.043258420435 49908.22904298145 23.150000000001683
22303.40674214706 49909.82700487862 23.150000000001683
22300.449688037083 49921.89573454009 23.150000000001683
22293.283697167626 49924.54935910112 23.150000000001683
22813.439966064514 51108.11293128602 23.15000000000174
22806.76207177074 51112.30257957717 23.15000000000174
22814.587235349984 51148.99650424013 23.15000000000174
22840.571660346628 51226.42835094886 23.15000000000174
25860.869883396375 58019.58301451894 23.150000000001967
31880.237868376844 71546.68949709156 23.15000000000242
20358.8389039806 45713.87079792226 23.15000000000157
19930.326974384647 44768.875243443355 23.150000000001512
19912.12705332814 44744.80101800651 23.150000000001455
19513.170788205673 43865.140172752486 23.150000000001455
19909.191200180074 44771.81540799502 23.150000000001455
19918.8686355571 44810.397812109 23.150000000001512
20751.210919014313 46699.635614773826 23.15000000000157
20334.036782443916 45778.38199795738 23.150000000001512
29800.064455552965 67105.94280079656 23.15000000000225
25763.13309792519 58039.64258943176 23.15000000000191
31776.132971949773 71608.40187950306 23.15000000000242
38149.972646394 86000.62872178036 23.150000000002933
39728.22281441086 89591.38186595356 23.150000000003047
39783.97694540968 89750.86934456942 23.150000000003047
39771.10725140609 89755.63509667866 23.150000000003047
41387.74484725284 93438.49939109593 23.15000000000316
19855.889147294096 44854.02451582583 23.150000000001512
36595.08255610039 82682.86693167684 23.150000000002763
36582.47298823274 82685.54808850156 23.150000000002763
36570.619647591666 82689.93747671439 23.150000000002763
35204.34558255679 79631.38104638041 23.150000000002706
35203.53442675596 79659.59521013203 23.150000000002706
35193.12731068302 79666.11037829971 23.150000000002706
35160.50610149823 79622.33444675848 23.15000000000265
18242.81476009813 41336.193621436345 23.1500000000014
17906.823074569467 40590.54579246843 23.1500000000014
17897.91174577982 40585.684050013 23.1500000000014
17892.09662510699 40587.83743637979 23.1500000000014
18945.074146000643 42991.63588528198 23.150000000001455
18938.983746279217 42994.07295179999 23.150000000001455
18583.708096812916 42203.85862589256 23.1500000000014
23660.398794207733 53748.28967630019 23.150000000001796
24902.982423370824 56591.43547343212 23.15000000000191
23076.725910053385 52462.542600035114 23.15000000000174
23637.198122838843 53756.6098931857 23.150000000001796
23634.01038071063 53769.72174387724 23.150000000001853
24227.730925478634 55140.90638401026 23.150000000001853
23042.40902090804 52463.978503947794 23.15000000000174
20986.4936701808 47802.77252353891 23.150000000001626
20983.23215269044 47813.46962214025 23.15000000000157
26968.735093902305 61470.28026038995 23.15000000000208
20965.66718003737 47809.71249691794 23.150000000001626
20063.19265447294 45769.900096181256 23.150000000001512
19237.595883072117 43903.911494340005 23.150000000001455
18479.664761468004 42190.922213849066 23.1500000000014
18485.272387022625 42219.748174936954 23.150000000001455
18872.9045290298 43121.06741925446 23.150000000001455
20057.563807464954 45844.0239535633 23.150000000001512
20066.577108381753 45882.05036847377 23.150000000001512
22410.30201460594 51258.23545033795 23.15000000000174
22402.96640055663 51260.95188773874 23.15000000000174
22937.43403928559 52503.400932186916 23.15000000000174
18079.65490805575 41403.773608377705 23.1500000000014
18422.48686958584 42204.58493132544 23.150000000001455
18416.44840182366 42206.82102493156 23.150000000001455
18410.475556411868 42209.2075018017 23.150000000001455
18427.880500612966 42265.18814760732 23.150000000001455
23460.433675940585 53822.92011468043 23.150000000001853
21323.995220257315 48941.8730516113 23.150000000001683
18392.5763130454 42232.507371008796 23.150000000001455
18383.4538546265 42227.66809800962 23.150000000001455
24663.564406738966 56668.52835470385 23.150000000001967
19932.397667085617 45819.01436800781 23.15000000000157
19517.35420362749 44882.46394618243 23.150000000001512
19507.29582358764 44876.470169738364 23.150000000001512
19105.997250315468 43970.45934328237 23.150000000001512
19096.381944845598 43965.128548421846 23.150000000001512
23993.818955504288 55256.62507442602 23.15000000000191
23980.660842812813 55247.441848838505 23.15000000000191
23972.76220050109 55250.36678017307 23.15000000000191
18737.57485184646 43205.412098729954 23.150000000001455
18733.008873658982 43211.41165867646 23.150000000001512
21225.98501141308 48978.16702716317 23.150000000001683
21219.19050022277 48981.235292127094 23.150000000001683
49131.79193481485 113431.63445052042 23.150000000003956
23327.111790583192 53886.40601256572 23.150000000001853
22750.285952448536 52574.52050790974 23.150000000001796
18675.318086163392 43177.45754875654 23.150000000001455
18285.069824428774 42291.800812919646 23.150000000001455
21665.64429218547 50126.47840479311 23.15000000000174
28224.851352028036 65321.404367148534 23.15000000000225
26602.528197635875 61591.536083402716 23.150000000002137
28206.185018649117 65328.31666185014 23.15000000000225
16350.413960060449 37891.706442936214 23.150000000001285
33223.50216901884 77004.6255400505 23.150000000002706
31005.76810501196 71893.2848095665 23.15000000000248
29986.812134380598 69557.96034841181 23.15000000000242
28159.339814859595 65345.1812818537 23.15000000000225
26553.632469515996 61643.82532071063 23.150000000002137
26544.828545121927 61647.08548534539 23.150000000002137
27310.352596416596 63448.7626084098 23.150000000002194
20620.198137449494 47928.960789716846 23.150000000001626
16565.263790001878 38522.357896806665 23.150000000001285
16271.635793039355 37854.42992094013 23.15000000000134
16266.363157657534 37856.73798028532 23.15000000000134
18178.978649138055 42322.02110111501 23.150000000001455
18180.08708109639 42340.903682352524 23.150000000001455
18170.40265831383 42334.66448477988 23.150000000001455
18160.96994301829 42329.00515868152 23.150000000001455
18158.022056179994 42338.45338284393 23.150000000001455
18145.226274689987 42324.9466633111 23.150000000001455
18873.36879392454 44039.602432133666 23.150000000001512
18133.14498103468 42329.4204643746 23.150000000001455
18486.607552625042 43170.81498956627 23.150000000001455
19657.189596260425 45920.92614956602 23.15000000000157
19247.872381805184 44982.487286596916 23.150000000001512
19647.510491453773 45933.78547699867 23.15000000000157
19238.551305248187 44995.45947710909 23.15000000000157
19232.250031195734 44998.11310479371 23.15000000000157
20054.990929348216 46940.4200008815 23.15000000000157
20052.522093466545 46952.79423247646 23.150000000001626
15122.277234071002 35427.07541087404 23.150000000001228
15110.298095363996 35412.72332750973 23.150000000001285
14881.357067610574 34889.96172824678 23.150000000001228
15876.877969559642 37237.130955582834 23.150000000001285
16147.806193880946 37886.89647336012 23.15000000000134
16433.259750248817 38571.24006375684 23.15000000000134
16137.00049607695 37890.89791093018 23.15000000000134
15077.784634696542 35418.75914827589 23.150000000001285
15589.122273148654 36633.472913959784 23.150000000001285
15586.46040630637 36641.42462727569 23.150000000001285
23557.214984158167 55391.13878626893 23.15000000000191
21875.823113538256 51458.936026049596 23.15000000000174
14579.03594262369 34314.272353346314 23.150000000001228
14800.276407524625 34848.23223684101 23.150000000001228
18725.82244357481 44103.2184584767 23.150000000001512
17639.07363041952 41560.95133497665 23.150000000001455
17632.9975474672 41562.785227505876 23.150000000001455
17294.334817434567 40780.73580403167 23.1500000000014
17288.523202219825 40782.88789229889 23.1500000000014
17615.227355499454 41569.36567377199 23.150000000001455
17609.30395817688 41571.55915586069 23.150000000001455
17606.42729792024 41580.94476091427 23.150000000001512
17942.71855497671 42391.28693235189 23.150000000001512
17939.76511365381 42400.81424985519 23.150000000001455
17933.724493476275 42403.05114051819 23.150000000001455
15234.511904330573 36037.88043844689 23.150000000001228
15229.264229689328 36039.51116262936 23.150000000001228
15226.357296153164 36046.680154361304 23.150000000001285
15484.774550231134 36672.419200822085 23.15000000000134
18262.21423715918 43263.60865976914 23.150000000001512
19414.744391009655 46010.70557617682 23.150000000001626
19412.003412428756 46022.16482564919 23.150000000001626
15466.873311906491 36687.246039806494 23.150000000001285
15461.64929849109 36689.18053435983 23.150000000001285
15461.471432973849 36703.08748741084 23.150000000001285
15462.839335844186 36720.67271003518 23.150000000001285
21687.7703328229 51515.79974992332 23.150000000001796
22209.330919884036 52774.84054556788 23.150000000001853
22197.148151138193 52766.526598372475 23.150000000001853
21157.234433123864 50315.04569567563 23.150000000001796
20209.77091147861 48081.50595664973 23.150000000001683
18556.700947090823 44167.50997389007 23.15000000000157
34975.69691432919 83262.46660648755 23.150000000002933
14450.1171332666 34424.489612189005 23.150000000001228
14886.632959191285 35477.70621566655 23.150000000001228
14883.865476838544 35485.01112983307 23.150000000001228
14412.83774671554 34376.10025049622 23.15000000000117
14407.35721089897 34376.50623462745 23.150000000001228
14396.07232639423 34363.064088579165 23.15000000000117
14166.28306363814 33828.13489323474 23.15000000000117
14386.397368526967 34366.9302722038 23.150000000001228
14615.629315031783 34927.924179438116 23.150000000001228
14606.615415147324 34920.09798021945 23.150000000001228
13511.506337906956 32316.153717891542 23.150000000001114
13711.612821954732 32807.35252561438 23.150000000001114
13502.313574481326 32319.557872774574 23.150000000001114
13499.600876342269 32325.767859299223 23.150000000001114
15869.644295967028 38012.53988217002 23.15000000000134
15861.662343031952 38008.37131252346 23.15000000000134
18070.995692207976 43316.79654898109 23.150000000001512
18064.83625391343 43319.077438956854 23.150000000001512
53143.43335792635 127449.21773826667 23.150000000004525
10504.239993975052 25216.90173821805 23.150000000000887
17024.43495145347 40873.57518413522 23.150000000001455
15829.082515084467 38020.01672316442 23.15000000000134
16103.515522330586 38694.08400527841 23.1500000000014
15552.920732198172 37386.49083510341 23.15000000000134
15810.01365298745 38019.15952249706 23.15000000000134
14540.541958734591 34981.747618100824 23.150000000001228
14305.114700075812 34429.24658149026 23.150000000001228
14292.817167841356 34413.24012764007 23.15000000000117
20941.362588540916 50431.98513585497 23.150000000001796
21423.502944003863 51613.02212923524 23.150000000001853
22482.835698987143 54185.57348185796 23.15000000000191
20435.530628917175 49272.62488837749 23.15000000000174
19974.269985946663 48179.94072890394 23.150000000001683
19533.07201200834 47134.7831923546 23.150000000001626
15753.462627591216 38033.104352490736 23.15000000000134
15228.7255789237 36781.43947803704 23.150000000001285
15215.428815301286 36763.88081278149 23.150000000001285
14706.795391220052 35549.624110101264 23.150000000001228
14699.721100860075 35546.59954554999 23.150000000001228
14939.702173892378 36140.904359600005 23.150000000001285
14689.739398509611 35550.617498705025 23.150000000001228
12269.662538494591 29708.775957102167 23.150000000001057
56104.03217845613 135829.83785638335 23.150000000004866
17559.955623303078 42543.55358169241 23.150000000001512
18263.88582391246 44265.77174496409 23.150000000001512
18257.513865056804 44267.8887526575 23.15000000000157
18251.22876180801 44270.21617738541 23.15000000000157
13969.074227007806 33901.452453758575 23.150000000001228
12080.687200048971 29332.82370277248 23.150000000001
12077.871355680501 29337.637153355536 23.150000000001057
12075.287800420587 29343.017291093645 23.150000000001
12227.382541453571 29724.168145175503 23.150000000001057
11914.063958892611 28974.51963163563 23.150000000001
13333.444718436134 32436.954342844045 23.150000000001114
29744.975606586988 72366.78731700369 23.150000000002535
24775.10405680215 60302.804541994854 23.150000000002137
14375.50943517662 35012.261619871475 23.150000000001228
14372.688234732681 35019.32882960594 23.15000000000117
15094.054229977786 36790.6104115806 23.15000000000134
15897.493756916056 38763.32283859477 23.1500000000014
14832.034542379095 36181.10701750797 23.150000000001285
15078.265787665287 36796.09396807325 23.150000000001285
15335.456384660947 37438.31077521208 23.150000000001285
15070.277121583067 36805.941936989824 23.150000000001285
12698.058462310893 31027.76572599138 23.150000000001057
12875.881542891831 31474.555340606745 23.150000000001057
12873.20928946776 31480.586466338056 23.150000000001114
